ncols 	 91 
nrows 	 135 
xllcorner 	 218505.00 
yllcorner 	 6850365.00 
cellsize 	 10.0 
NODATA_value 	 -9999 
800.82	797.82	793.34	789.43	786.30	783.15	782.24	780.99	780.01	779.15	778.29	775.83	773.92	772.78	771.37	770.00	768.56	768.01	767.29	765.74	763.94	763.55	761.95	760.13	758.07	754.48	750.96	747.34	744.44	741.44	738.70	735.30	731.70	728.15	724.43	720.33	715.89	711.27	707.01	701.93	698.10	693.58	689.12	685.67	681.49	676.53	672.10	668.02	663.93	659.83	654.79	649.60	643.15	637.53	633.42	627.50	623.49	618.37	612.50	606.31	601.14	596.55	591.93	588.01	584.83	581.51	576.65	571.55	566.45	563.19	560.90	559.11	556.03	551.30	546.64	542.49	537.98	533.87	529.55	524.62	519.16	513.94	506.90	500.77	495.16	488.61	481.66	475.95	470.61	465.17	-9999	
799.73	796.20	792.95	789.55	786.23	783.08	782.23	781.42	779.84	778.76	776.87	775.42	773.64	772.78	771.82	770.09	770.19	768.97	767.77	766.30	764.89	763.85	762.31	760.67	758.26	755.20	751.39	747.78	744.97	741.24	738.15	734.84	731.56	727.75	724.04	720.07	715.25	710.52	705.80	701.40	697.70	693.89	689.56	685.89	681.45	676.90	673.20	668.79	664.15	659.98	655.51	649.97	644.31	639.36	634.34	629.46	625.76	621.67	614.44	607.21	602.24	597.43	592.09	587.92	584.83	580.87	576.24	571.37	566.85	563.42	560.29	557.53	554.61	551.33	547.50	543.19	538.04	532.97	528.78	524.05	518.57	514.00	507.66	501.65	496.56	489.30	482.18	476.52	470.34	464.09	-9999	
798.65	795.07	791.56	788.93	786.89	783.91	781.71	781.33	779.67	777.88	776.32	775.16	773.73	772.31	771.56	770.34	771.02	769.89	768.39	766.79	765.19	763.72	762.13	761.01	758.42	755.08	751.39	747.63	744.93	741.54	738.32	735.39	732.48	728.68	724.64	719.74	714.88	710.39	706.10	702.05	698.24	694.27	689.62	685.74	682.50	678.46	674.86	669.07	664.94	659.83	654.96	649.96	645.74	640.89	635.58	631.38	627.47	623.48	616.98	606.34	600.61	596.40	591.65	587.38	583.55	578.68	574.76	570.61	566.78	563.45	559.81	556.50	552.64	548.30	545.49	542.45	538.77	534.51	529.65	524.33	519.30	514.54	508.67	502.09	496.12	489.25	482.64	476.51	471.32	463.11	-9999	
798.66	795.14	792.01	787.99	784.67	781.89	782.50	781.49	780.16	778.60	776.34	774.94	773.93	772.62	771.34	770.62	771.11	770.82	768.68	767.17	765.67	763.21	762.47	760.84	758.63	755.06	751.75	747.89	744.34	741.38	738.45	735.50	732.84	727.94	724.02	719.96	716.14	711.16	707.06	702.76	698.66	694.52	689.73	685.82	683.18	679.72	675.86	669.50	665.20	660.17	655.41	649.88	645.14	640.29	635.67	630.49	626.37	621.37	613.40	604.57	599.32	595.31	591.73	586.64	582.37	577.52	574.74	571.61	568.18	564.42	561.46	556.38	551.38	547.52	543.63	538.75	534.90	531.24	526.86	521.33	516.34	511.38	504.60	499.63	494.33	487.91	481.51	475.22	467.81	462.35	-9999	
799.23	795.55	791.30	787.24	784.37	781.86	779.68	781.30	780.41	778.69	776.65	775.42	774.38	772.50	771.74	770.27	771.12	771.16	769.23	767.32	766.15	763.57	762.49	760.87	758.18	754.85	751.56	748.14	744.65	741.70	738.49	735.36	732.20	727.10	723.15	720.03	715.98	712.05	707.90	703.71	699.12	694.85	690.95	686.45	683.24	680.56	676.72	670.36	666.19	660.81	656.07	650.45	645.30	640.59	635.69	630.81	625.84	621.69	613.90	605.14	600.38	594.81	591.14	586.41	582.13	577.51	574.44	571.71	568.33	565.17	561.76	556.67	552.01	547.94	543.52	538.76	533.87	528.52	523.42	518.38	513.17	507.67	501.29	495.93	489.41	483.84	478.63	473.23	466.91	462.06	-9999	
798.56	795.15	791.56	786.78	783.66	781.57	779.31	777.98	780.24	779.06	777.57	775.32	774.20	773.31	771.50	770.00	770.37	770.40	769.30	767.71	766.22	763.19	762.06	760.66	758.25	755.30	752.50	748.99	745.06	742.19	738.96	735.09	731.00	727.24	722.63	719.38	715.87	712.29	708.01	703.69	699.61	695.71	690.96	687.49	682.97	680.37	675.94	671.86	666.30	661.65	655.83	651.28	646.02	640.81	636.02	630.83	625.11	619.12	612.14	608.33	603.24	597.93	594.02	588.21	583.99	580.11	575.71	571.08	568.01	565.24	562.19	558.15	553.65	549.25	544.88	540.64	535.14	530.76	526.12	521.38	516.08	511.02	505.34	499.27	492.27	486.65	480.32	473.11	464.95	462.11	-9999	
798.98	795.53	791.16	787.33	784.46	782.47	780.25	776.84	777.12	778.81	777.61	775.50	773.75	773.15	771.87	770.53	769.45	769.52	769.11	767.79	766.21	763.25	762.10	760.29	758.77	755.71	753.11	750.40	745.97	742.52	738.74	734.68	731.12	727.18	723.10	719.84	716.45	712.24	707.64	704.02	700.19	696.23	691.92	688.15	683.82	680.93	676.09	672.93	668.20	661.69	656.28	651.52	646.45	641.28	635.82	630.57	625.07	619.19	614.52	610.43	604.98	599.22	594.59	589.38	584.93	580.69	576.07	571.87	568.41	565.28	562.04	558.22	554.62	550.61	546.68	542.74	537.65	533.96	529.77	523.76	518.40	512.03	505.59	498.38	490.70	484.38	478.82	471.66	463.07	461.98	-9999	
798.90	794.94	791.94	788.62	785.60	782.82	780.61	777.41	775.56	777.99	777.30	775.88	774.15	772.85	772.07	770.56	769.14	769.24	768.51	767.37	765.55	762.88	761.88	759.89	758.46	756.34	753.26	750.26	747.20	742.92	738.69	735.06	731.91	728.07	724.19	720.32	716.99	712.68	708.10	704.82	701.03	696.82	693.28	689.06	685.50	681.57	676.32	673.54	669.87	664.81	656.81	651.30	646.29	641.33	635.87	630.23	624.70	619.29	613.88	609.99	604.16	599.16	594.24	589.88	585.86	582.16	577.78	574.14	569.82	567.49	563.37	558.86	554.85	551.01	547.01	544.05	539.70	536.11	531.01	526.11	520.06	514.10	506.60	498.89	490.93	484.07	478.10	471.43	464.15	461.04	-9999	
799.76	795.63	792.34	789.22	786.31	783.56	780.35	777.43	775.16	774.75	776.68	775.90	774.70	773.09	772.13	770.71	768.33	768.26	767.86	766.96	765.41	762.70	761.42	760.10	758.50	756.18	754.28	752.02	748.30	743.82	739.65	736.43	732.12	727.55	723.71	720.35	716.98	713.23	709.15	705.29	701.27	697.26	694.05	690.16	688.10	682.77	678.02	675.08	670.56	665.60	659.15	650.61	645.08	640.67	635.00	629.49	624.40	618.54	613.14	608.08	602.68	597.00	592.73	588.86	585.99	582.07	579.40	575.19	570.76	564.76	558.64	553.87	550.35	546.52	542.25	538.15	534.17	530.01	528.10	521.61	516.92	512.12	505.14	498.58	491.02	483.64	477.98	472.00	465.06	459.80	-9999	
800.29	797.16	793.69	790.48	786.80	784.64	782.08	779.14	776.48	774.44	773.86	775.20	773.80	773.11	771.97	770.12	768.38	767.45	767.53	766.57	765.17	762.46	761.73	760.06	758.79	756.94	755.05	753.18	748.78	744.36	740.15	736.45	732.60	728.00	724.14	720.56	716.96	713.28	709.52	705.73	701.34	697.67	694.67	690.94	686.92	683.42	678.80	674.95	670.43	665.15	658.83	650.74	645.55	640.09	634.65	629.18	623.70	618.14	612.63	607.96	602.85	597.31	592.09	588.18	583.91	578.79	572.90	568.96	565.58	560.69	554.99	550.79	546.15	542.02	536.90	533.30	528.37	523.49	519.56	515.42	509.35	505.20	498.50	492.32	486.84	481.55	476.54	470.52	463.33	459.50	-9999	
800.44	798.25	794.73	791.86	788.48	785.41	783.20	780.51	778.38	775.35	773.14	772.96	773.20	772.76	772.49	770.42	768.20	766.63	765.43	766.00	764.94	762.91	761.29	759.55	758.65	757.25	755.44	752.99	749.21	743.73	740.13	736.71	732.85	728.20	725.01	721.91	717.45	713.49	709.08	705.76	702.05	697.84	694.82	692.21	686.65	683.86	679.88	674.62	669.37	663.76	656.43	649.87	644.70	639.24	633.67	628.69	623.11	617.85	612.45	606.73	601.99	598.72	594.09	588.97	584.01	579.09	572.07	565.82	559.69	555.45	552.50	548.11	543.38	538.99	534.59	529.62	524.66	519.41	515.46	511.36	506.61	500.90	495.49	489.87	485.96	479.96	474.13	467.37	464.24	458.21	-9999	
800.79	798.28	795.20	792.97	789.88	787.27	784.32	781.92	779.23	777.62	773.61	772.02	771.86	772.64	772.14	770.83	768.08	766.44	765.33	764.37	763.69	762.82	761.28	759.79	758.24	756.79	755.48	752.56	748.72	744.37	740.63	736.77	733.13	728.05	724.33	721.23	717.19	713.28	708.92	706.09	702.11	698.46	695.78	691.92	686.95	684.27	680.48	674.15	668.43	661.69	656.59	649.93	643.42	637.38	632.95	629.80	624.86	619.14	613.52	608.83	603.70	598.44	592.63	587.37	580.83	575.11	570.43	564.64	558.42	553.51	547.86	543.75	539.91	536.12	532.49	529.47	526.23	523.09	520.43	516.29	510.41	504.95	500.53	496.85	489.87	484.06	476.87	470.90	465.46	458.35	-9999	
800.58	798.32	796.36	793.45	790.46	787.88	784.46	781.84	779.48	777.74	775.02	771.99	771.24	771.68	770.82	769.76	767.89	766.50	765.40	764.20	762.96	762.02	760.71	759.64	757.92	756.00	753.61	751.17	748.47	745.74	741.35	736.93	732.42	727.76	724.19	720.83	717.68	713.07	709.95	706.94	702.53	699.44	694.95	692.31	688.31	685.22	680.98	676.18	668.80	662.01	656.24	649.01	641.43	633.52	629.14	623.58	621.39	617.75	613.64	609.11	603.23	596.32	590.12	584.70	579.61	573.62	567.08	562.10	556.95	553.11	550.00	546.96	543.99	540.76	537.03	534.15	531.51	528.97	525.00	519.64	514.33	511.03	505.65	499.05	491.96	485.13	477.87	471.61	465.69	458.87	-9999	
800.74	797.61	795.66	793.60	790.92	788.29	785.01	782.16	780.21	778.02	776.28	773.33	770.84	769.19	768.31	768.14	767.96	766.01	765.35	763.62	763.11	760.97	760.82	760.49	757.48	755.85	753.68	751.38	748.68	745.26	741.04	736.95	732.56	728.26	724.61	720.96	717.74	713.97	710.42	707.05	702.46	699.29	694.89	692.80	689.04	684.86	680.94	676.18	670.11	662.57	655.10	648.33	641.07	632.91	627.58	620.96	615.25	611.25	606.75	601.77	597.45	592.51	586.77	581.92	576.78	571.97	568.82	564.95	561.88	559.65	556.98	553.17	549.78	546.74	543.08	540.66	537.88	534.82	529.03	523.65	518.21	511.69	504.94	498.67	493.12	485.75	478.11	472.17	466.23	459.33	-9999	
800.81	798.05	795.50	793.13	791.46	788.76	785.50	782.98	780.43	777.89	776.27	774.64	771.75	769.60	766.96	766.23	765.93	765.87	764.80	763.48	762.33	760.82	760.83	759.42	757.61	755.73	753.70	751.66	749.15	745.30	741.07	737.15	733.12	728.70	724.95	721.86	718.42	714.35	710.96	707.65	702.81	698.93	695.70	693.26	689.53	685.46	680.97	675.05	668.64	661.14	654.15	647.21	639.71	632.64	626.89	620.04	615.22	610.43	605.44	600.59	596.33	590.94	586.30	583.56	580.12	577.08	574.51	571.62	568.39	565.83	563.09	558.33	554.99	552.76	549.13	545.54	541.54	537.61	533.13	525.58	519.50	513.19	507.45	502.11	493.72	485.56	478.33	471.69	465.45	460.40	-9999	
800.29	798.31	795.86	793.86	791.68	789.12	786.07	783.33	780.68	778.67	776.88	774.72	773.01	771.22	768.91	766.37	765.40	764.96	764.26	762.92	762.17	760.75	760.57	759.25	757.63	755.36	753.34	751.33	749.23	745.73	740.59	736.62	732.95	729.31	725.40	721.65	718.02	714.61	711.09	707.70	704.03	699.71	696.79	693.39	688.89	684.80	678.22	672.70	666.09	658.51	651.49	645.91	639.58	633.08	628.28	622.08	617.96	613.27	608.99	603.61	600.18	595.20	590.84	589.24	586.52	584.05	581.92	577.81	573.57	570.07	566.40	562.32	558.23	554.39	550.73	546.24	542.45	538.68	534.10	526.81	520.34	516.67	510.92	503.97	494.30	486.41	478.44	471.41	464.53	460.60	455.80	
799.41	797.31	795.16	793.25	791.27	788.86	785.83	783.77	781.11	778.83	776.71	775.04	773.18	771.39	770.59	767.99	766.45	764.68	763.85	763.06	761.79	760.61	759.86	758.75	757.41	755.19	753.16	751.19	748.94	745.84	741.20	736.39	732.83	729.59	725.68	721.59	717.90	714.42	711.11	707.75	704.45	700.62	697.80	693.67	689.17	683.99	676.29	671.07	664.66	658.59	652.88	647.57	641.96	636.04	629.65	625.50	622.07	617.54	613.98	609.17	603.63	598.77	594.90	591.52	586.90	584.85	581.39	578.30	574.28	569.52	565.66	562.10	557.93	554.35	550.58	546.47	542.54	538.48	533.86	527.77	521.91	516.20	510.73	504.51	496.90	488.51	478.85	471.45	463.58	459.19	454.94	
800.05	797.40	794.18	792.42	790.27	788.00	785.38	784.14	781.97	779.44	777.70	775.68	774.06	771.45	770.16	768.32	767.58	765.76	763.71	762.95	761.75	760.58	759.32	758.31	757.01	754.96	752.89	750.81	748.50	745.23	740.75	736.55	734.05	730.53	726.34	721.97	718.22	714.15	710.99	707.47	704.51	701.27	698.77	694.64	690.17	682.93	677.65	671.16	665.85	660.08	655.64	649.35	643.37	637.37	632.66	628.27	624.61	619.70	614.58	609.61	605.04	599.97	595.16	590.40	585.33	580.65	577.06	574.91	574.27	569.61	564.71	559.85	552.57	548.42	544.63	541.43	536.24	534.18	532.54	526.92	520.48	514.70	507.52	500.13	492.81	484.90	477.67	469.97	463.46	457.98	454.56	
800.61	798.09	795.10	791.87	790.40	788.04	785.85	783.53	781.87	780.23	777.35	774.66	773.70	771.47	769.31	768.65	767.25	766.31	764.64	762.66	761.46	760.45	759.17	758.02	756.61	754.70	752.55	750.54	748.10	745.15	741.51	737.84	734.73	730.87	726.49	722.46	718.36	714.36	710.68	708.17	704.99	702.31	699.36	695.01	688.92	683.20	678.34	672.65	667.27	661.88	655.92	649.13	642.83	636.51	631.17	626.12	621.97	615.65	610.63	605.87	602.10	597.57	593.24	588.73	584.14	579.93	575.65	571.20	567.27	564.86	559.77	554.07	549.11	543.17	537.34	533.71	530.65	525.94	523.82	522.81	519.29	512.06	506.55	500.94	494.15	486.21	477.20	469.20	462.21	457.56	454.42	
800.60	797.90	795.72	792.40	790.21	788.82	786.24	784.07	782.09	779.53	777.74	774.54	772.75	772.10	769.76	768.22	766.88	766.13	765.05	762.55	760.95	759.96	758.89	758.25	756.22	754.32	752.10	749.80	747.55	744.83	741.70	738.14	734.76	730.26	726.56	722.63	718.32	714.88	711.80	707.94	703.99	700.76	697.95	693.66	687.14	681.97	676.58	670.56	665.38	659.91	654.11	647.78	641.11	633.94	625.78	621.28	617.64	615.56	609.09	603.25	597.99	593.75	588.84	584.35	578.87	575.82	572.38	565.94	562.35	558.82	554.96	550.81	546.05	540.09	534.73	529.43	525.03	520.93	517.08	514.50	512.48	507.31	499.71	492.74	488.74	482.39	475.44	468.43	461.00	456.46	453.94	
800.63	798.28	796.01	792.88	790.09	788.47	786.47	783.83	781.34	779.57	777.47	774.90	772.97	771.46	770.14	768.56	767.10	765.75	764.45	761.98	760.61	759.47	758.59	757.66	755.44	753.76	751.35	749.10	747.03	744.41	741.08	737.62	734.31	730.61	726.96	723.23	718.91	715.15	713.21	708.88	703.99	700.58	696.87	692.82	688.23	682.72	677.33	671.17	666.21	659.93	653.69	648.49	643.03	635.53	628.10	619.13	611.34	607.66	606.00	601.90	596.56	592.22	587.13	581.47	575.04	570.15	566.52	560.84	556.83	553.19	549.34	545.09	541.95	537.54	532.00	525.60	520.27	515.03	511.14	507.39	504.04	501.86	496.31	488.37	481.19	477.45	470.94	464.64	456.92	454.90	452.75	
801.03	799.03	796.51	794.17	790.36	787.86	786.03	784.11	780.96	779.06	777.45	775.32	773.20	771.03	769.62	769.17	767.15	766.06	764.44	761.63	760.24	758.88	757.82	756.63	754.73	752.71	749.98	748.06	746.76	744.31	741.00	736.78	733.55	730.39	727.57	723.77	719.33	714.91	712.11	708.72	704.79	701.31	697.84	693.43	688.87	684.37	677.75	672.27	665.79	660.33	654.11	647.51	641.31	635.77	628.19	619.61	611.28	604.81	599.16	596.26	592.51	591.09	586.19	580.33	573.73	567.73	562.52	556.75	552.22	549.32	546.76	544.73	542.01	538.09	533.11	528.20	522.44	516.73	513.69	509.17	504.38	500.19	495.30	490.59	482.78	476.93	471.80	465.80	459.66	454.35	452.11	
801.28	799.02	796.95	794.41	791.18	788.06	785.47	783.95	781.18	779.29	777.16	775.19	773.04	771.25	769.77	767.99	767.77	765.62	764.49	761.72	760.11	758.15	757.40	756.21	754.36	752.23	749.23	747.81	743.89	742.31	739.47	736.03	733.64	730.09	726.43	722.96	718.63	715.07	711.17	708.07	704.67	700.74	697.13	693.67	689.66	684.30	678.69	672.02	667.41	659.86	652.87	647.39	641.35	635.24	625.60	617.57	612.30	606.52	601.12	593.81	587.12	582.40	578.22	574.38	570.07	566.20	563.32	560.72	556.99	554.60	552.35	549.65	545.61	541.08	535.34	530.97	525.92	521.22	517.45	513.64	510.53	505.70	498.84	491.19	486.89	481.38	476.09	469.82	464.54	457.43	451.28	
802.43	799.82	796.99	794.21	791.47	788.13	785.68	782.80	781.19	779.47	776.46	775.27	773.38	770.65	769.42	768.45	766.67	765.70	764.93	762.92	760.39	758.03	756.96	755.34	753.69	751.61	749.14	746.34	743.04	740.27	737.06	734.56	731.08	727.94	723.95	720.16	717.02	713.80	710.45	707.23	703.57	700.36	697.36	693.20	688.99	683.98	677.93	671.89	666.26	659.60	652.68	646.15	639.88	634.34	628.55	621.82	615.38	609.26	603.72	597.77	592.47	587.90	582.85	578.44	575.07	571.97	569.10	566.08	563.31	561.07	558.57	554.88	549.71	544.21	539.39	534.38	529.55	525.53	521.49	519.75	513.60	507.39	501.78	497.77	493.86	487.55	480.84	473.66	466.40	459.95	451.25	
803.65	798.66	794.85	792.71	791.93	788.48	785.39	783.41	780.65	778.38	776.84	775.21	773.44	771.73	769.21	768.10	766.42	765.04	764.28	762.59	760.35	758.56	756.31	754.35	752.32	750.76	748.83	745.97	743.89	741.92	739.84	736.15	731.87	727.72	724.63	721.90	718.32	715.30	713.05	708.95	704.80	700.53	697.58	693.33	689.18	683.71	678.63	673.13	667.16	660.18	654.78	649.39	643.80	636.93	629.32	622.81	617.34	612.71	607.22	601.37	596.36	591.84	587.24	584.52	580.68	578.89	575.36	572.08	569.51	567.59	564.66	558.95	553.73	548.72	545.55	539.55	535.96	531.89	528.02	521.46	516.34	512.97	508.16	503.74	497.47	490.86	482.89	475.45	468.93	461.73	454.40	
802.13	797.50	793.86	791.08	789.31	787.11	784.86	783.70	781.37	778.89	776.53	774.74	772.99	771.32	770.03	767.84	766.36	764.31	763.35	762.64	759.97	758.68	756.73	753.72	751.98	750.19	748.20	745.86	743.41	740.94	739.20	735.76	732.54	728.47	725.39	722.74	719.59	717.85	714.00	709.08	704.60	700.15	697.20	693.10	688.24	683.12	678.36	673.97	667.02	659.24	653.42	648.97	643.44	635.76	629.02	623.78	619.57	614.98	610.37	605.46	601.35	597.08	592.91	588.52	584.26	581.76	580.07	576.88	571.44	566.23	561.70	558.47	556.13	553.52	549.49	545.11	540.63	536.13	531.11	526.42	520.45	514.47	509.44	503.79	498.31	491.14	483.38	475.79	469.78	463.79	458.58	
802.21	798.81	795.35	792.45	789.46	786.88	784.24	782.32	780.87	779.31	776.78	774.40	773.20	771.28	769.20	768.19	765.99	763.87	762.77	760.97	759.27	758.28	756.10	753.72	751.54	749.99	748.16	745.69	742.61	739.22	736.83	734.80	732.45	727.92	724.47	721.19	718.48	715.62	712.16	708.17	704.21	700.15	696.48	692.31	688.10	683.07	678.40	672.73	666.16	659.30	651.71	645.43	640.04	633.36	625.37	619.45	614.40	608.41	604.07	597.77	594.11	590.14	586.25	582.89	578.41	575.44	572.20	571.24	566.34	560.14	554.79	551.15	547.84	546.82	547.90	544.12	539.72	535.77	531.33	525.30	519.53	513.11	507.43	500.92	495.51	489.18	482.82	476.51	471.86	465.57	460.96	
803.38	799.91	797.00	794.72	791.81	788.47	785.59	782.76	780.71	778.73	776.92	774.23	772.92	771.65	769.53	767.61	765.97	763.21	763.16	761.94	758.05	757.77	755.23	753.18	751.40	749.73	747.44	743.98	741.10	738.42	736.10	735.58	731.77	727.81	725.42	721.77	718.11	714.86	711.11	707.13	703.19	699.33	695.41	690.47	686.37	681.65	676.26	668.29	662.57	656.14	649.95	642.34	635.86	629.04	622.03	617.42	613.57	610.27	602.59	598.18	593.73	589.76	585.30	581.95	579.37	575.76	569.80	564.74	562.20	556.53	551.53	547.09	541.88	539.25	540.40	542.14	539.74	535.16	531.53	526.29	521.08	515.20	508.53	502.99	497.31	491.91	487.25	479.74	473.14	467.18	461.84	
804.47	801.64	798.42	795.70	792.82	790.59	787.12	783.98	781.53	779.14	776.56	775.11	772.69	771.38	770.10	768.10	766.35	764.21	762.83	761.42	758.28	757.05	754.59	751.98	749.89	747.74	745.25	742.79	740.47	737.96	736.11	734.70	731.55	728.46	725.21	721.91	717.89	714.78	711.28	707.33	703.09	698.90	694.82	689.19	684.99	679.92	673.12	666.68	659.60	652.54	646.01	639.27	633.93	629.33	625.75	621.88	617.86	611.54	606.55	603.47	598.14	594.33	591.55	588.51	582.23	576.07	572.36	568.77	563.22	559.84	554.91	549.04	543.36	538.04	533.49	533.67	535.91	533.09	528.83	525.37	520.00	514.31	507.67	502.48	497.01	491.64	486.76	481.71	474.89	467.89	461.56	
805.98	802.44	799.62	797.26	794.25	791.10	788.42	785.26	781.88	779.24	776.64	775.11	773.02	771.39	769.97	769.01	767.00	764.27	762.92	761.23	758.24	756.65	754.25	751.77	749.63	747.24	745.45	743.87	742.28	739.95	737.58	735.11	731.85	728.05	725.18	721.75	718.31	715.07	711.71	707.57	703.39	699.33	695.74	690.79	684.79	677.88	671.48	665.64	660.47	654.04	647.24	642.00	638.12	634.85	631.30	627.84	621.61	615.46	612.05	607.65	602.66	597.33	591.27	585.64	580.21	579.56	578.02	573.18	568.74	563.41	557.78	551.92	545.35	538.68	531.94	526.25	526.91	526.91	526.43	522.91	518.10	512.00	506.38	500.62	494.43	487.54	481.83	477.76	472.75	467.08	461.40	
806.27	802.86	800.48	797.99	794.00	791.08	788.30	785.83	782.36	779.42	777.06	775.46	773.22	771.35	769.45	769.03	766.53	764.17	762.97	759.85	757.10	755.94	753.70	751.84	750.00	748.52	747.01	744.88	742.46	739.68	736.83	734.12	730.94	727.67	725.24	721.42	718.66	715.52	712.29	708.38	704.50	701.40	696.69	691.00	684.56	679.38	675.15	670.11	664.29	656.80	651.96	648.29	645.29	640.58	634.93	628.29	622.43	616.89	612.00	607.15	601.10	594.45	590.19	587.24	586.37	584.88	581.79	577.35	571.98	565.93	560.16	553.43	546.32	538.80	532.00	525.32	520.47	519.18	517.15	517.44	516.34	512.27	507.52	500.96	495.03	488.40	482.77	476.20	470.33	465.94	460.84	
806.98	803.91	800.05	797.24	793.92	791.58	789.03	786.59	782.83	780.28	778.18	776.05	773.70	772.04	769.77	767.63	765.27	763.41	762.37	759.30	756.42	755.39	753.19	751.79	749.39	747.25	745.04	742.55	740.10	737.66	734.97	732.61	729.98	727.62	725.85	722.28	719.42	716.51	713.34	708.87	705.31	702.03	696.85	691.03	686.35	680.41	675.37	670.50	665.66	661.86	657.27	651.54	645.94	641.15	633.12	627.91	622.81	617.69	612.51	606.27	600.34	596.84	595.53	592.86	589.51	585.18	580.76	576.97	571.15	565.66	558.96	551.98	545.82	539.71	533.50	527.50	522.48	516.32	510.74	508.95	507.76	505.83	503.15	499.81	493.86	488.39	483.01	476.81	470.37	465.87	460.71	
807.71	804.09	800.45	797.40	794.63	791.91	789.90	786.50	783.95	781.59	779.01	777.26	775.13	772.23	770.02	767.72	765.05	761.94	760.71	757.89	755.92	755.07	753.28	751.30	748.42	746.05	743.74	741.46	739.24	736.90	734.38	732.14	729.52	727.32	725.50	723.72	719.75	715.86	712.02	708.24	705.35	701.93	695.99	690.68	685.64	680.29	676.41	672.75	668.25	662.03	656.30	650.78	644.08	637.63	631.60	625.97	620.46	615.56	610.52	606.83	603.73	601.42	598.25	594.65	590.32	585.61	580.77	575.73	570.98	566.17	559.99	553.00	546.17	540.62	534.67	529.67	523.59	518.23	512.17	506.06	500.99	498.64	496.32	492.33	489.91	488.38	482.74	476.24	469.91	464.08	459.00	
808.12	804.46	801.32	798.73	795.42	792.35	789.11	786.70	785.09	781.71	779.98	777.50	774.71	771.77	769.25	767.13	765.27	762.14	758.97	756.95	755.42	754.46	752.07	750.01	747.63	745.46	743.61	741.51	739.24	736.49	733.64	731.19	729.02	726.85	725.14	722.11	718.67	714.22	710.50	706.68	703.20	700.49	695.01	690.81	685.17	680.93	676.43	672.44	667.16	662.21	656.36	650.92	645.96	640.64	635.78	629.64	623.86	618.47	614.06	610.93	607.07	603.47	599.78	595.32	590.27	585.80	581.07	576.99	572.58	567.62	560.58	553.23	546.78	541.00	535.94	531.04	524.98	519.05	514.25	508.24	502.36	497.58	492.94	487.25	483.31	480.86	478.65	473.66	469.05	464.27	458.04	
808.69	805.51	802.23	798.97	795.43	792.26	788.48	786.81	785.64	782.32	780.42	777.98	774.29	771.32	768.76	766.92	765.30	762.36	758.43	756.04	755.02	753.24	751.55	749.29	747.26	745.00	742.72	740.48	738.28	735.79	733.39	731.45	728.99	726.40	724.53	721.04	716.58	711.72	708.56	705.28	700.66	697.11	694.75	690.03	686.26	682.27	678.63	674.48	669.65	663.97	658.66	653.44	647.68	641.83	634.81	628.91	624.34	619.85	616.14	612.56	609.21	605.54	600.05	595.45	590.77	586.31	581.87	577.43	572.58	567.39	561.64	554.67	549.30	543.33	537.90	532.77	527.33	522.22	516.37	509.10	503.65	498.54	494.08	489.51	484.70	479.26	475.66	469.96	464.55	461.24	456.23	
809.05	805.75	801.76	797.31	793.69	790.76	788.26	787.14	785.76	783.06	780.43	777.86	774.63	772.40	769.55	766.41	764.60	761.44	756.98	755.63	754.68	753.28	751.05	749.38	747.78	745.04	742.75	740.10	737.84	735.36	733.05	730.98	728.76	726.54	725.29	721.32	716.78	711.78	708.16	704.60	699.70	697.42	694.98	692.08	688.13	683.76	679.32	674.35	669.25	663.68	657.22	651.58	645.81	640.67	634.21	628.94	623.24	619.31	616.26	613.53	610.15	605.53	599.89	594.74	589.85	585.33	580.87	576.54	572.30	567.74	563.23	558.42	550.99	544.77	540.21	534.54	529.24	523.62	517.57	510.63	505.73	501.17	495.76	491.42	486.35	480.89	476.28	470.06	464.74	460.76	454.72	
809.41	805.64	801.34	795.81	792.85	790.53	788.68	787.29	785.24	783.36	780.70	778.67	775.90	773.44	770.67	768.52	765.12	760.93	756.44	754.97	754.33	753.23	750.88	748.84	747.37	744.29	741.93	739.49	737.00	734.76	732.39	730.18	728.70	726.83	725.30	721.29	716.44	711.35	706.09	702.24	699.28	695.20	691.54	689.13	684.51	680.26	677.15	673.81	668.24	662.97	657.02	650.80	645.57	639.10	633.20	627.22	622.21	618.42	614.82	611.78	608.68	605.18	599.74	594.49	589.24	584.67	580.59	575.98	572.03	566.96	562.44	557.99	553.41	547.61	542.08	535.83	530.01	524.34	518.79	513.89	508.65	503.05	497.78	491.73	486.43	481.55	475.90	470.38	464.82	460.03	454.84	
809.94	805.50	799.95	795.74	792.86	790.15	788.37	786.96	784.88	783.10	780.52	778.05	775.90	774.29	772.09	769.49	766.67	762.62	756.16	754.34	753.91	752.80	750.85	749.79	746.39	743.89	741.71	739.33	736.59	734.47	732.28	729.67	727.50	724.78	722.48	719.13	715.44	710.58	705.39	701.34	697.82	693.24	688.41	684.24	679.92	674.88	670.85	666.43	661.85	657.78	655.08	651.10	645.41	639.79	633.49	628.05	623.45	618.74	613.08	607.60	605.02	601.84	596.64	591.44	586.99	582.31	577.85	573.89	569.12	564.18	559.02	553.81	550.00	546.03	542.54	538.38	534.29	529.06	523.50	518.35	512.00	506.27	499.55	493.20	487.10	481.35	476.67	472.31	464.89	459.06	454.17	
811.14	805.72	800.92	797.06	793.42	791.19	788.45	785.92	783.98	781.81	780.13	778.12	775.63	773.37	771.90	769.12	765.91	761.97	755.27	753.77	753.39	752.12	751.04	750.00	745.53	743.36	741.03	738.68	736.30	734.51	731.93	728.66	725.57	723.37	720.49	717.63	714.45	710.94	706.84	702.45	698.23	693.54	687.22	682.04	676.25	671.20	666.51	661.75	656.97	651.99	648.21	642.73	639.50	635.70	629.55	624.22	619.37	615.23	610.33	605.00	599.78	596.84	594.83	591.27	586.52	580.97	576.12	570.81	565.73	560.36	555.49	550.75	546.13	541.40	537.41	534.34	531.48	528.74	522.61	516.03	510.30	504.77	499.32	492.82	485.61	479.82	475.54	470.85	464.10	458.91	453.52	
811.79	805.87	802.36	797.92	794.36	791.63	789.40	785.95	784.51	783.12	779.78	777.50	775.64	773.55	771.49	769.28	765.00	759.21	755.77	753.07	752.42	751.79	751.43	748.05	745.03	742.63	740.14	737.70	735.12	732.78	730.05	727.21	723.53	721.24	719.32	716.53	713.60	711.41	708.00	703.27	698.71	693.39	688.04	682.78	677.40	672.47	667.49	660.79	654.16	648.22	642.59	637.73	633.23	629.91	625.76	620.50	614.63	610.98	605.43	601.66	599.75	594.59	590.47	586.23	581.67	578.91	575.23	570.94	566.43	561.54	557.05	551.46	546.15	541.55	535.72	530.32	526.08	522.17	519.69	515.22	509.08	503.58	498.24	492.88	486.91	481.05	475.55	469.58	462.89	457.72	451.75	
810.44	806.62	802.21	798.66	795.38	792.11	789.47	787.28	784.33	782.94	780.97	777.63	775.35	773.39	771.79	769.40	765.26	758.32	754.13	752.37	751.48	749.96	748.08	746.40	744.70	742.42	739.18	736.36	733.44	731.01	728.75	725.70	722.21	720.05	718.44	716.44	713.91	711.46	708.90	706.23	702.24	696.68	690.82	685.17	679.64	674.36	668.22	662.44	657.35	650.29	646.29	641.57	636.20	630.82	626.69	623.08	617.72	613.44	610.14	607.87	603.37	599.45	594.29	588.81	582.84	579.09	575.00	567.84	564.22	560.51	555.98	551.41	545.26	540.60	534.65	528.17	523.79	517.39	512.40	511.09	507.99	502.38	497.06	490.29	484.28	479.34	473.83	467.51	461.48	455.69	450.63	
809.40	806.65	802.93	799.08	795.65	792.85	789.92	787.91	785.98	782.79	781.29	778.38	775.63	773.44	771.37	768.15	763.40	756.72	754.00	752.73	751.14	749.58	747.79	745.96	743.90	741.20	738.26	735.43	732.93	730.72	728.19	725.21	722.56	719.90	717.95	715.97	713.96	713.55	712.93	709.06	703.98	698.47	692.74	686.99	680.68	675.90	670.52	664.36	659.00	654.50	649.54	645.20	640.65	635.89	631.70	627.27	623.06	619.00	614.74	610.96	606.14	601.00	595.89	591.31	586.55	581.48	576.91	571.47	566.06	561.51	557.45	552.20	546.69	538.65	533.00	528.30	524.01	518.00	511.36	505.23	502.46	498.85	493.90	488.16	483.11	478.65	473.89	468.36	461.99	456.07	451.65	
810.22	806.42	802.40	799.05	795.94	793.00	790.53	788.07	785.13	782.64	781.11	778.60	776.37	773.74	770.79	764.90	760.35	756.10	753.81	752.37	750.48	749.10	747.31	745.56	743.40	741.30	738.70	736.03	733.72	731.46	728.73	725.97	723.19	720.26	717.68	714.95	713.20	712.95	712.87	710.26	704.57	699.26	694.36	689.10	684.42	678.58	672.58	667.54	662.75	658.71	653.91	648.42	643.38	638.02	632.85	628.15	623.35	618.53	613.96	610.40	606.34	601.40	596.45	591.60	586.65	581.20	576.45	571.11	565.34	561.33	555.91	551.14	545.25	538.85	532.72	528.16	523.01	515.68	511.09	506.65	500.08	493.06	490.15	486.66	481.14	476.65	471.61	466.26	461.51	455.75	450.01	
811.42	807.63	803.20	799.58	796.62	793.77	791.15	788.63	786.03	783.21	779.93	778.33	777.05	773.60	770.51	763.39	758.03	755.37	753.05	751.64	750.35	748.76	747.12	744.89	742.67	740.64	738.51	736.49	734.61	732.51	729.32	725.49	722.50	720.02	717.48	713.73	711.33	709.50	708.39	704.39	701.79	697.83	693.60	689.41	685.08	679.40	674.82	669.19	664.03	658.55	653.47	647.44	642.23	636.83	631.25	626.87	621.71	616.53	612.53	607.75	603.95	599.55	595.12	590.77	585.59	580.99	575.28	569.82	564.64	559.48	555.00	549.77	544.52	538.65	531.13	526.05	521.48	516.95	511.50	506.24	501.57	496.36	490.32	484.56	479.29	475.04	469.80	463.44	456.54	452.26	448.72	
811.74	807.74	804.31	800.44	796.69	793.40	791.23	788.80	786.17	784.02	781.33	778.23	776.16	772.86	768.69	761.04	756.19	754.47	753.05	751.40	749.91	748.50	747.31	745.73	743.70	741.61	739.39	737.34	735.15	732.27	729.09	724.82	721.50	719.46	715.70	712.80	710.09	708.07	703.81	700.17	697.45	694.78	691.16	688.95	687.55	679.06	673.48	668.63	662.75	657.39	652.62	646.69	641.19	635.47	630.62	626.22	621.59	615.52	610.84	606.76	601.79	597.40	593.13	589.25	583.97	579.82	574.85	568.19	563.63	558.34	553.69	548.16	542.75	537.20	530.70	525.33	520.12	515.86	510.07	505.96	500.79	495.03	489.59	484.04	478.32	472.98	467.46	461.54	454.73	450.47	446.01	
811.12	807.31	803.56	800.46	795.27	792.38	789.97	787.61	785.66	783.63	781.53	779.21	776.54	773.21	765.85	758.94	755.95	754.06	752.80	750.96	749.46	748.11	746.69	745.09	743.26	741.31	739.18	736.80	734.24	731.83	728.83	724.52	721.12	719.05	714.42	711.21	707.75	703.75	700.17	696.28	693.47	691.08	688.43	686.78	684.97	680.19	671.64	667.00	661.89	657.12	651.89	646.14	641.13	635.85	631.02	625.97	620.25	615.12	611.31	606.53	601.54	597.15	590.56	585.42	581.11	578.72	573.81	566.62	561.75	556.20	552.12	547.83	541.96	537.20	530.17	523.71	519.33	513.96	509.32	504.50	498.90	493.67	489.29	484.19	477.37	471.81	467.21	463.04	455.93	449.52	444.91	
810.36	806.65	802.42	799.09	795.18	792.39	789.47	787.22	784.86	782.90	780.57	779.73	777.06	773.04	764.83	758.03	754.81	753.19	752.21	750.80	749.00	747.29	745.93	744.21	742.46	740.63	738.54	736.06	733.35	731.05	728.44	725.04	721.22	718.74	714.19	711.00	706.67	702.18	697.44	694.94	692.60	690.24	687.80	685.45	682.22	678.58	672.45	665.91	661.59	656.55	651.30	645.85	639.90	635.00	629.56	623.43	618.26	613.67	609.16	604.92	600.16	594.54	589.92	584.30	579.64	575.83	571.24	564.62	559.57	555.90	551.10	545.89	540.68	536.16	530.43	525.14	518.78	513.10	508.23	503.61	498.10	493.13	487.77	481.11	475.09	470.35	464.91	460.21	455.41	449.15	444.70	
807.77	805.29	801.81	798.54	794.40	791.89	788.62	786.71	785.19	783.41	780.96	779.20	777.46	773.44	761.92	756.45	754.52	753.55	751.72	750.49	748.76	746.90	745.30	743.45	741.59	739.72	737.62	734.87	732.23	729.93	727.69	725.02	721.89	717.36	713.16	710.71	706.36	701.50	697.21	694.47	692.43	690.49	687.65	683.43	679.39	674.58	669.85	665.74	660.77	655.13	650.13	644.30	638.07	631.66	627.42	622.98	618.26	612.28	606.52	601.97	598.81	592.86	587.78	583.47	578.93	574.22	568.43	562.91	557.43	553.06	548.78	543.73	539.18	534.40	528.57	523.96	519.23	512.80	507.40	501.12	496.12	490.84	485.45	480.15	474.38	468.44	463.21	457.90	453.55	448.52	443.17	
806.74	803.42	801.49	797.18	793.95	790.70	787.98	786.54	784.76	783.44	780.91	778.88	776.72	771.55	759.09	755.77	754.34	752.99	751.83	750.32	748.42	746.58	744.73	742.62	740.77	738.72	736.47	733.71	730.64	728.37	726.28	723.93	721.61	717.22	712.87	709.75	705.32	701.51	698.98	697.02	695.12	692.31	688.10	683.90	678.34	672.74	667.46	660.93	656.50	651.94	647.06	641.84	636.52	629.64	622.47	618.74	615.10	610.82	606.59	600.42	595.29	589.25	584.66	580.73	577.00	572.65	566.38	561.04	556.22	551.43	546.59	540.26	534.68	532.70	527.74	522.26	516.34	511.19	505.78	499.93	494.48	488.93	483.50	478.51	473.40	467.78	462.08	454.56	451.42	446.37	441.63	
809.02	803.67	800.58	796.55	794.55	788.86	786.98	785.61	783.41	779.69	779.57	777.09	773.98	766.33	757.61	756.09	754.28	752.86	751.72	749.88	748.09	745.93	743.88	741.65	739.71	737.68	735.33	732.40	729.31	726.51	724.50	722.67	720.78	715.63	711.68	708.49	705.03	702.10	699.87	697.89	695.15	690.82	687.17	682.85	677.92	673.77	668.63	662.45	656.86	651.69	646.01	640.96	635.47	628.05	620.22	615.16	610.74	606.40	602.20	594.22	592.64	589.12	584.37	578.87	574.50	569.23	563.44	558.13	554.30	550.43	545.46	540.11	534.54	530.13	524.11	518.76	514.25	508.56	503.24	497.95	492.56	487.95	481.30	475.25	470.40	463.65	457.11	450.44	448.05	443.76	438.37	
809.68	803.49	799.75	795.16	792.72	788.67	786.62	784.56	782.75	779.64	775.77	773.08	769.53	763.25	758.09	756.09	754.75	753.16	751.66	749.82	747.52	745.42	743.12	740.74	738.60	736.47	734.19	731.59	728.45	725.77	723.93	722.09	721.90	715.17	710.93	708.44	705.15	702.56	699.64	696.98	693.26	689.36	685.43	681.51	676.70	672.07	667.30	661.94	656.24	650.79	645.95	640.88	633.52	627.27	622.41	617.31	612.99	607.12	600.92	597.00	592.67	588.79	583.77	578.46	571.95	568.44	562.41	557.97	553.02	548.76	543.33	537.85	534.58	528.29	521.78	515.70	511.47	506.66	501.19	496.23	490.38	483.76	475.31	469.18	465.04	458.76	453.05	447.70	445.86	439.66	434.27	
808.95	801.80	797.66	794.25	791.64	788.47	786.39	784.29	782.24	779.53	775.14	770.87	766.66	762.27	758.86	756.49	754.79	753.22	751.53	749.57	747.28	744.97	742.40	740.34	737.45	735.26	733.56	731.19	727.73	725.14	723.48	722.00	720.87	714.23	710.75	708.09	704.84	701.58	698.43	695.33	691.86	687.58	683.26	678.81	673.53	669.71	665.27	660.21	655.42	650.13	643.81	638.33	632.40	625.32	619.38	615.37	611.30	604.71	599.10	594.73	590.81	586.75	582.21	576.91	571.64	566.51	561.62	555.70	551.00	546.50	539.20	534.24	530.29	523.63	517.64	512.09	506.15	500.31	494.27	484.88	482.22	474.46	469.78	466.63	461.74	455.24	449.52	445.54	442.55	435.66	428.71	
807.20	801.32	795.61	793.29	791.09	788.34	785.80	783.90	781.27	777.87	773.61	768.91	765.13	761.83	758.92	755.78	754.70	752.78	751.03	749.17	746.63	743.97	741.39	738.87	736.38	734.09	732.13	729.73	726.14	724.58	722.82	721.46	717.92	712.80	709.93	707.25	704.65	700.93	696.51	692.44	689.48	686.32	682.11	677.78	673.21	668.49	662.54	658.73	654.03	648.07	642.37	635.60	630.82	624.27	619.06	613.35	607.68	603.66	598.43	594.00	588.79	583.68	579.54	574.35	568.57	562.48	557.85	553.38	546.66	537.07	530.83	527.07	523.60	515.64	507.74	503.93	497.19	491.83	487.06	479.94	474.05	471.72	467.80	463.72	459.26	453.89	447.35	444.74	439.50	432.62	426.97	
804.07	799.00	794.01	792.62	790.66	787.51	785.49	784.02	781.81	778.49	773.54	766.64	764.30	761.76	759.32	756.23	754.30	752.33	750.20	748.31	746.02	743.09	740.44	737.47	734.93	734.03	732.44	728.99	725.24	723.32	721.17	717.73	713.89	711.70	709.16	706.03	702.82	699.31	695.37	692.04	688.92	685.67	681.67	676.23	671.77	667.40	661.86	655.73	650.28	644.82	639.21	632.83	626.68	621.51	616.13	612.55	607.23	600.87	596.41	591.80	586.03	580.78	572.20	568.71	563.98	557.23	552.51	545.85	536.16	530.00	525.71	523.48	517.31	509.15	503.27	498.45	490.55	486.31	478.89	474.53	471.75	468.18	462.75	459.44	455.87	451.36	445.54	443.05	436.78	430.20	425.58	
801.10	796.90	794.11	791.57	789.61	786.60	783.42	781.23	779.86	777.82	771.94	766.35	763.41	761.59	759.17	756.41	753.56	751.38	749.22	747.26	744.83	742.07	739.62	737.87	736.36	734.49	731.41	728.53	725.29	722.78	720.60	717.29	713.80	710.80	707.73	705.53	702.26	699.80	696.69	692.68	689.12	686.22	681.49	676.66	671.24	666.65	661.96	657.93	652.29	646.72	640.57	634.55	628.30	622.37	613.66	606.45	602.56	596.27	593.79	589.13	582.99	576.67	570.69	565.50	557.57	551.13	544.77	537.85	531.76	527.25	521.36	518.29	513.76	507.85	500.57	493.95	487.33	482.14	478.09	473.50	468.43	462.71	462.35	457.90	451.00	447.14	444.89	440.66	433.02	427.40	-9999	
800.30	797.17	793.58	790.59	787.55	785.55	783.53	781.54	778.62	773.72	768.13	764.30	762.54	761.08	757.37	755.15	752.61	750.21	747.48	745.80	744.06	741.52	740.38	739.76	737.01	734.52	731.73	728.07	725.44	722.74	720.40	717.21	713.78	710.22	706.82	703.25	700.81	698.18	694.34	691.11	687.80	684.50	680.27	675.25	670.43	665.72	660.50	655.21	649.14	643.40	638.05	633.82	628.24	621.90	612.70	604.44	598.28	592.54	586.90	583.48	577.50	570.69	565.98	559.93	553.92	546.57	539.85	534.93	530.09	523.90	517.49	512.03	504.96	505.75	502.00	497.38	491.76	486.42	481.76	477.23	469.93	463.44	455.22	456.02	452.33	445.91	444.58	437.92	431.24	426.21	-9999	
796.55	794.32	791.85	788.95	784.66	782.25	781.18	778.64	776.55	771.82	765.94	762.60	761.40	758.95	757.68	754.05	751.63	749.26	747.13	745.12	743.24	741.42	740.90	740.32	738.76	735.42	731.10	728.40	725.07	722.30	719.73	717.19	713.56	709.09	705.60	702.78	699.08	695.62	691.96	688.91	686.69	684.03	679.35	673.91	669.64	664.69	660.47	654.30	647.92	642.62	637.47	630.54	624.97	616.65	607.66	600.87	595.34	590.47	583.16	577.17	571.27	568.52	562.49	556.62	551.00	545.29	538.41	533.54	528.58	520.73	513.97	506.72	501.12	498.58	496.74	493.35	489.62	483.94	478.88	474.09	468.88	463.15	456.78	450.96	448.62	443.97	441.57	434.62	429.78	424.94	-9999	
794.31	792.03	789.71	786.89	783.30	780.67	777.73	775.91	772.50	767.46	762.78	760.97	759.99	757.98	756.10	753.35	750.72	748.14	746.19	745.02	742.90	743.19	741.84	740.63	738.18	734.84	731.27	728.39	725.07	721.89	718.74	715.84	713.36	709.38	704.13	701.59	699.29	695.92	691.17	687.67	684.88	681.55	678.35	673.81	668.11	663.52	658.57	653.14	647.97	642.00	636.33	626.72	620.23	609.00	604.50	599.34	592.48	586.71	582.40	575.12	570.08	563.39	559.12	553.33	547.45	542.36	537.79	530.25	524.20	516.37	510.07	504.13	498.95	494.52	490.79	488.02	485.40	481.88	476.90	471.69	466.51	461.86	457.12	451.40	446.18	443.67	439.71	432.66	429.09	-9999	-9999	
792.12	790.14	787.26	785.56	781.67	778.74	775.98	773.14	765.36	762.24	761.38	759.56	757.93	758.08	755.15	752.21	750.05	748.10	746.05	744.87	744.69	744.09	742.30	740.55	738.69	736.49	732.20	727.40	724.13	720.99	717.45	715.04	712.70	708.57	703.89	700.53	697.38	694.23	690.52	686.79	683.01	680.15	676.26	671.68	667.50	662.41	656.38	650.24	644.59	639.49	632.83	624.83	615.13	608.80	603.01	593.43	588.84	582.78	578.77	574.23	568.36	560.47	552.12	547.26	541.27	538.11	532.41	526.86	521.52	514.92	508.98	503.30	497.07	492.27	488.24	482.47	480.18	478.37	474.08	469.47	464.30	459.35	454.75	448.77	444.48	443.30	437.07	431.26	428.73	-9999	-9999	
790.57	787.13	783.34	781.65	779.82	776.45	774.84	768.71	761.32	760.91	760.08	759.17	757.95	756.68	754.04	751.36	748.21	747.44	746.03	744.44	744.45	744.48	743.80	742.00	739.82	737.71	732.57	726.63	723.71	720.68	717.30	715.64	713.87	709.14	704.61	700.42	696.34	692.04	687.95	684.57	681.22	677.17	673.61	669.23	665.60	661.07	655.12	648.69	642.39	636.67	627.70	619.83	613.79	607.32	598.44	593.43	587.98	582.36	577.01	571.90	565.94	559.80	553.19	545.93	537.86	531.44	527.12	522.86	517.97	513.06	507.60	501.01	496.17	490.68	486.25	482.68	478.44	474.33	469.67	465.30	460.47	456.05	451.06	446.31	443.56	441.95	434.87	429.79	-9999	-9999	-9999	
789.26	785.33	781.62	778.96	775.76	773.41	771.30	762.50	760.40	759.90	759.27	758.06	756.50	755.03	752.86	749.65	746.80	746.10	745.56	744.50	744.43	745.00	744.40	742.53	741.41	738.30	731.39	725.84	723.66	720.84	717.79	714.60	711.02	706.67	702.16	697.70	693.87	690.47	686.71	683.84	680.29	675.99	671.51	667.17	662.79	658.56	653.05	647.54	640.35	630.74	624.28	618.52	611.41	601.71	597.06	592.43	587.86	582.69	576.57	570.15	563.39	557.47	550.50	542.36	536.44	529.93	522.92	517.81	513.95	509.60	504.87	501.48	495.62	490.22	485.48	481.29	476.84	472.94	468.17	464.70	458.81	454.24	449.18	444.99	442.66	441.42	433.84	429.03	-9999	-9999	-9999	
788.68	783.76	780.29	776.85	773.07	769.28	766.39	761.41	759.42	759.00	758.38	757.43	755.95	754.29	752.11	749.09	746.12	745.58	745.59	744.61	744.74	745.79	744.96	742.87	740.47	737.60	729.63	724.52	722.38	719.58	716.28	713.62	709.75	705.60	701.69	697.52	693.41	690.02	686.68	682.38	678.16	674.75	670.45	664.73	660.40	656.27	650.07	643.81	633.22	628.05	620.82	615.49	607.65	599.73	595.50	590.06	585.61	581.32	574.56	565.52	559.23	553.11	545.90	537.38	535.06	530.09	523.45	516.43	508.94	502.09	500.16	496.75	496.89	492.36	487.24	481.82	476.52	471.84	467.71	464.13	459.86	453.95	446.82	445.34	441.58	440.48	432.82	427.65	-9999	-9999	-9999	
787.89	783.39	779.72	776.53	773.00	768.25	763.71	760.14	758.80	758.45	758.61	757.21	755.72	753.93	751.61	748.63	746.01	745.26	745.28	744.91	745.40	746.11	746.23	744.02	739.32	735.36	726.26	722.87	720.01	717.69	715.76	712.93	709.42	706.03	702.42	698.51	693.86	690.25	686.65	682.36	675.96	671.21	667.70	663.01	655.91	651.58	643.89	637.61	630.45	624.20	618.62	612.81	606.39	600.01	593.55	588.89	583.32	578.41	569.57	560.84	554.92	549.98	543.35	537.73	532.39	526.45	521.09	514.02	508.16	502.16	494.47	489.55	490.40	489.48	486.53	482.60	477.03	472.11	466.83	462.12	458.81	453.00	448.13	443.30	440.53	438.42	431.18	426.60	-9999	-9999	-9999	
787.28	783.07	780.34	777.43	774.66	770.27	761.97	759.40	758.34	756.30	757.35	756.82	754.88	753.54	751.16	748.52	746.06	745.23	744.91	744.90	744.67	746.18	745.71	744.33	737.20	730.62	725.72	721.55	717.31	715.17	713.79	710.97	707.92	704.67	700.83	696.86	692.76	688.64	683.77	679.73	675.06	669.33	664.74	659.97	652.93	647.42	640.79	633.19	629.24	623.87	618.25	612.84	607.14	598.55	591.01	585.38	578.48	572.36	564.76	559.70	552.62	546.23	540.76	535.87	529.65	522.77	515.06	510.40	505.54	497.88	492.28	486.19	482.07	482.07	480.47	478.07	474.84	469.47	465.32	461.07	457.29	451.90	447.98	441.49	439.76	436.15	429.06	426.24	-9999	-9999	-9999	
787.61	783.64	780.57	777.17	773.28	766.06	760.62	758.27	755.94	755.98	756.10	755.42	754.00	752.80	750.73	748.13	745.47	744.64	744.77	744.32	744.33	745.19	745.56	743.39	734.95	729.66	725.61	721.08	716.55	713.77	711.64	709.05	706.22	703.04	698.73	693.61	689.32	686.82	682.18	676.99	672.13	665.85	659.54	654.57	648.39	643.08	637.37	631.70	626.03	620.91	616.95	610.46	602.58	595.51	587.51	579.75	573.93	567.73	560.98	555.93	550.71	544.98	539.68	532.53	523.94	517.29	512.79	506.58	498.09	495.76	490.91	484.72	478.42	477.44	474.82	472.60	469.62	467.04	463.39	458.93	455.81	450.89	444.39	438.86	437.68	432.37	426.74	-9999	-9999	-9999	-9999	
786.92	783.34	780.22	775.90	771.60	763.33	760.01	758.25	755.84	755.79	755.25	754.62	753.62	751.90	750.19	747.51	744.15	743.72	743.24	743.11	742.71	742.96	743.57	739.93	733.55	729.85	725.46	720.62	716.38	712.36	709.55	706.84	703.99	701.52	697.49	692.66	688.08	684.17	680.21	675.40	668.65	662.49	657.29	652.06	646.83	641.89	636.25	630.46	624.14	619.16	612.46	605.21	597.23	590.40	583.34	576.22	571.16	565.78	559.61	554.19	547.81	542.02	534.87	528.09	521.44	515.57	507.76	500.51	496.86	492.17	489.18	487.08	480.57	474.01	472.68	468.79	466.13	463.88	459.64	456.37	453.18	449.86	442.33	436.58	436.38	430.06	425.69	-9999	-9999	-9999	-9999	
786.26	782.87	779.23	775.46	771.40	762.56	759.03	757.89	755.71	755.34	754.10	753.16	752.31	751.08	749.16	746.57	742.75	741.05	740.81	740.61	740.35	740.31	739.92	735.94	731.48	728.49	723.36	719.61	715.18	711.42	707.82	705.01	701.50	698.74	695.20	689.83	685.60	681.29	676.37	671.64	666.30	660.48	654.64	649.75	644.73	639.56	633.53	627.25	622.28	616.00	606.44	600.94	593.70	586.36	580.41	574.24	567.91	562.03	555.46	550.22	544.00	538.02	532.20	525.78	519.00	513.72	507.63	502.55	495.73	489.49	485.30	483.28	481.26	477.38	470.13	463.95	463.18	458.07	456.85	455.37	453.59	447.19	440.91	435.52	434.56	427.96	424.64	-9999	-9999	-9999	-9999	
785.42	782.37	779.42	775.47	768.44	762.50	758.63	756.64	755.63	754.11	753.23	751.65	750.97	750.06	748.20	745.64	741.83	740.32	737.94	737.45	736.92	737.01	736.29	733.67	730.07	726.23	721.49	717.55	713.44	709.41	705.33	702.27	698.76	695.73	691.60	687.97	683.29	679.06	673.77	668.24	663.36	658.07	651.21	646.58	641.82	635.91	631.03	625.03	616.75	609.01	603.52	597.97	591.48	585.16	579.47	573.28	566.94	559.14	553.25	547.97	540.61	531.99	526.28	519.57	515.31	511.76	509.06	502.74	496.58	490.11	484.07	479.76	475.16	473.62	472.16	468.21	462.32	458.89	454.06	447.39	448.34	445.83	439.84	435.26	432.75	426.01	424.24	-9999	-9999	-9999	-9999	
785.17	781.83	777.89	774.41	764.98	760.44	758.28	756.25	755.14	752.86	752.04	750.70	749.88	748.75	747.33	744.58	741.93	739.51	737.61	735.63	733.91	733.89	734.07	732.12	728.94	724.23	719.84	715.48	711.60	707.49	702.96	699.34	696.54	693.56	689.80	685.09	679.51	675.57	671.04	665.79	660.80	655.30	649.10	643.87	638.83	633.79	627.39	619.49	611.66	605.67	600.56	595.54	589.63	583.14	577.30	569.96	564.19	557.13	550.51	543.59	537.27	529.27	523.93	518.18	512.91	507.54	503.40	503.29	498.63	492.25	485.40	480.62	475.22	471.39	465.71	464.61	461.24	459.66	457.18	450.63	441.71	442.46	438.04	434.79	432.14	425.36	424.26	-9999	-9999	-9999	-9999	
783.63	780.68	777.08	773.05	760.92	758.60	757.07	754.99	752.97	750.95	750.62	749.44	748.32	747.53	746.55	744.85	741.57	739.05	736.85	734.68	732.39	731.35	732.09	731.27	727.06	723.26	718.33	713.92	709.70	705.52	701.21	697.38	694.88	691.89	687.22	682.36	677.99	673.10	668.65	663.52	658.71	651.76	647.08	641.48	636.28	629.69	622.42	614.70	607.71	602.91	598.15	593.18	587.04	578.48	572.42	565.78	558.51	553.21	544.85	537.91	532.19	527.79	521.64	515.40	509.74	503.71	498.78	495.27	497.63	494.96	488.65	482.64	476.97	471.37	467.74	463.41	457.56	455.07	451.20	451.16	446.35	438.20	435.32	435.48	430.82	424.60	423.54	-9999	-9999	-9999	-9999	
781.96	779.82	775.89	768.85	759.57	756.83	755.56	754.30	751.54	750.34	749.59	748.67	747.94	747.13	746.25	745.65	742.69	739.47	737.67	734.24	731.32	730.16	730.54	729.48	725.35	720.95	716.88	711.94	707.68	703.63	699.93	696.33	693.50	689.44	684.61	677.63	673.65	670.58	666.53	661.23	655.34	649.88	644.65	639.39	632.24	624.49	618.95	611.60	605.86	600.12	595.27	590.08	583.12	575.17	568.86	562.59	552.75	546.39	541.10	536.29	531.98	526.26	518.79	512.64	508.61	503.31	497.43	491.03	490.32	492.31	488.33	483.35	478.11	473.64	469.15	464.91	459.97	454.70	447.46	443.59	443.94	440.82	433.88	429.50	429.24	424.50	423.43	-9999	-9999	-9999	-9999	
781.31	777.56	774.22	761.91	759.24	756.41	754.53	753.18	750.78	749.86	748.44	747.45	747.07	746.26	746.08	746.08	743.49	740.60	738.24	734.20	729.92	728.19	728.74	727.35	723.73	719.14	714.56	710.51	706.51	702.59	699.17	695.56	691.81	686.63	680.38	676.39	672.59	667.91	663.92	659.23	653.49	647.98	642.13	635.07	627.75	620.99	614.25	609.39	604.54	598.68	591.95	584.64	578.17	573.07	565.70	559.35	553.40	546.92	541.05	534.81	528.61	523.14	517.15	512.55	507.25	499.27	493.60	488.05	484.27	486.06	487.14	481.43	476.38	471.42	466.45	463.42	459.77	455.23	452.14	445.80	439.23	438.02	435.63	432.89	427.99	424.46	423.06	-9999	-9999	-9999	-9999	
780.16	775.93	771.78	760.93	758.33	756.08	753.17	752.32	749.80	750.00	747.99	746.30	745.79	745.90	745.70	745.17	744.13	741.45	738.29	734.49	730.13	727.20	726.68	725.55	721.63	717.49	712.99	708.30	704.58	701.07	697.61	693.97	689.96	685.41	680.27	676.44	672.36	666.34	662.08	656.90	649.84	643.58	637.99	631.32	624.75	619.00	613.50	607.61	601.29	594.24	587.87	580.84	573.53	566.95	562.98	557.48	551.22	544.69	539.28	534.13	528.63	521.75	516.28	509.20	502.96	498.19	493.73	488.32	482.55	479.35	482.23	480.21	475.36	471.03	465.91	461.90	457.67	453.72	451.11	446.28	438.90	436.31	434.87	432.51	426.55	423.73	-9999	-9999	-9999	-9999	-9999	
776.76	773.20	763.62	760.27	757.17	754.85	753.38	750.38	748.85	749.20	746.68	745.35	744.90	744.76	745.05	744.29	743.29	741.48	738.34	735.10	730.44	726.61	725.00	723.88	720.13	716.30	711.89	707.68	703.44	699.15	694.92	690.76	686.34	682.29	677.32	674.01	669.26	663.54	658.45	651.78	644.86	638.62	632.21	627.27	622.46	616.79	610.69	604.59	599.07	592.63	586.29	579.04	571.03	563.75	557.64	552.07	548.03	542.91	537.22	530.14	524.32	518.08	512.24	506.82	501.36	496.31	490.79	484.11	479.66	475.83	476.67	478.07	473.76	469.75	465.22	460.13	456.16	452.05	449.24	443.36	436.66	433.38	433.70	430.06	424.71	421.67	-9999	-9999	-9999	-9999	-9999	
774.12	767.18	762.50	759.49	755.57	754.87	752.31	748.78	748.82	748.50	744.70	743.96	743.26	743.81	743.81	743.75	742.62	741.59	738.98	736.17	732.36	728.05	724.58	722.79	718.75	714.82	710.77	706.84	702.96	698.24	693.27	688.29	684.33	680.06	674.03	668.16	663.87	658.95	654.27	647.49	641.08	635.89	630.94	625.81	619.57	612.94	607.23	599.48	593.50	593.09	586.99	578.72	570.74	562.82	556.25	548.78	542.34	538.31	532.61	528.49	522.63	515.96	510.89	505.02	500.10	494.88	488.97	483.57	477.32	473.50	471.81	471.74	469.72	465.92	463.07	458.77	454.55	450.74	447.73	441.30	434.06	431.14	431.10	429.32	422.91	420.49	-9999	-9999	-9999	-9999	-9999	
769.94	765.23	762.06	758.24	755.31	752.57	750.06	748.81	748.73	746.33	742.77	742.28	741.86	742.60	742.28	743.07	741.71	740.37	738.39	735.95	732.47	729.17	724.97	722.52	718.08	714.17	710.23	705.94	701.63	697.78	691.83	686.28	682.53	678.52	672.55	664.53	659.99	655.50	649.69	643.77	639.16	633.77	629.12	623.17	613.48	609.60	602.75	595.85	587.32	583.66	583.32	579.12	571.10	563.42	555.05	548.74	542.00	536.25	529.60	520.75	517.93	513.03	507.62	502.39	496.88	492.00	486.21	481.21	476.29	472.11	468.16	465.25	464.82	464.57	461.23	457.15	453.84	451.01	446.90	439.65	432.29	430.12	429.62	429.53	422.94	419.67	-9999	-9999	-9999	-9999	-9999	
767.98	764.73	761.70	757.39	754.45	751.76	748.86	748.09	747.85	744.74	741.17	740.71	739.93	740.25	740.04	741.96	741.42	739.11	737.62	734.71	731.97	727.80	724.98	722.36	717.81	713.72	709.70	705.37	700.72	694.81	688.96	683.19	678.53	672.91	667.01	661.24	657.24	651.92	646.29	641.11	635.90	631.01	626.01	619.51	611.03	605.03	599.19	593.13	583.76	577.52	574.14	571.92	567.66	562.36	557.53	550.28	542.06	535.72	529.04	522.41	517.21	510.88	503.68	498.52	493.62	489.36	484.85	480.92	476.99	472.83	469.59	465.59	463.42	457.22	453.95	450.45	448.84	449.20	446.16	438.62	431.38	429.36	428.76	425.42	424.23	419.43	-9999	-9999	-9999	-9999	-9999	
765.82	763.46	760.82	755.49	753.29	750.40	747.98	746.60	743.22	742.29	741.10	739.34	738.28	737.01	736.71	737.97	738.32	737.73	735.77	733.74	730.79	727.78	724.09	721.23	717.60	713.71	708.59	704.27	697.94	691.97	684.93	680.73	675.67	667.36	661.19	657.76	651.55	647.46	643.49	639.02	633.18	628.13	622.67	615.68	608.98	602.19	594.88	588.55	582.84	575.78	568.95	564.47	559.91	555.87	551.26	547.62	543.89	538.80	531.16	524.51	518.27	512.06	506.77	501.39	496.12	493.34	489.80	484.72	480.01	475.58	471.18	467.00	464.22	460.05	454.41	449.36	444.00	441.82	441.69	436.77	431.91	430.12	428.18	423.55	423.36	418.02	-9999	-9999	-9999	-9999	-9999	
764.52	761.65	759.06	755.03	752.59	749.04	746.54	744.75	742.31	741.33	740.70	738.22	736.59	735.10	733.78	734.33	734.86	735.40	734.12	731.90	729.84	727.35	724.71	720.96	717.42	711.70	706.96	701.60	695.45	689.38	681.93	677.17	667.57	662.65	657.82	654.52	649.20	644.07	639.93	635.57	629.71	624.12	617.61	611.28	605.69	601.35	597.05	590.11	583.65	576.99	571.14	564.91	559.29	552.80	546.01	540.72	536.63	532.98	529.47	524.44	518.39	512.86	507.85	502.95	498.43	494.96	491.20	487.79	483.69	479.93	474.99	469.89	464.08	460.14	457.26	454.06	447.51	440.83	436.98	435.40	432.70	430.72	427.30	423.98	422.26	418.10	-9999	-9999	-9999	-9999	-9999	
763.24	760.00	757.76	754.82	751.53	747.86	745.69	744.02	742.52	740.57	738.62	736.33	735.01	733.74	732.95	731.46	731.76	731.58	731.84	729.77	728.57	726.70	723.16	720.14	715.88	709.81	703.15	697.46	691.34	685.00	679.24	672.69	667.38	662.25	656.33	649.99	643.88	641.19	636.11	631.05	625.95	620.86	617.92	611.90	605.87	599.17	592.11	587.45	582.85	578.47	573.03	566.98	561.04	554.50	548.42	541.72	534.46	527.78	522.46	519.20	514.62	509.85	504.30	499.54	493.66	490.09	485.89	482.72	480.97	478.69	474.82	469.67	464.00	459.86	455.48	453.73	451.37	445.97	439.34	434.03	432.09	430.57	426.24	425.60	422.90	419.60	-9999	-9999	-9999	-9999	-9999	
761.97	758.56	756.41	752.97	750.30	748.33	745.56	744.56	742.17	738.83	736.84	734.91	733.56	732.72	731.44	730.00	728.65	727.82	726.89	725.24	724.26	723.64	720.17	716.45	710.78	704.30	699.45	696.26	690.52	684.93	679.96	674.84	669.50	663.21	656.18	649.68	643.03	636.07	629.29	624.95	619.93	615.79	612.53	609.34	604.51	598.16	593.59	586.87	580.35	574.94	569.26	565.05	559.34	553.48	548.14	542.24	535.97	529.70	524.25	518.07	510.91	504.83	499.33	495.62	490.34	486.15	481.42	477.44	474.96	472.03	470.51	467.64	463.64	458.40	453.90	451.80	449.45	446.27	439.05	431.64	431.27	429.03	427.30	425.67	423.62	417.72	416.05	-9999	-9999	-9999	-9999	
760.62	756.79	754.66	751.92	749.92	748.63	746.71	743.84	740.33	736.70	735.46	733.77	731.75	731.00	729.81	728.39	726.75	725.79	724.40	722.75	721.16	719.89	717.10	712.65	706.41	699.85	694.85	691.31	688.73	683.46	677.18	671.30	666.99	661.65	657.14	651.89	646.05	639.59	632.03	625.55	619.98	612.67	607.32	604.01	601.62	597.02	590.29	584.80	579.26	573.98	568.94	563.07	556.32	550.15	544.96	539.33	534.16	528.62	523.39	517.13	511.03	505.00	498.91	493.12	486.45	481.58	478.63	475.80	472.16	468.88	465.50	463.36	461.42	456.77	453.25	450.11	446.34	441.35	435.87	429.17	428.67	427.97	427.77	425.30	424.34	416.30	415.56	-9999	-9999	-9999	-9999	
759.80	755.77	753.94	751.18	749.56	747.51	744.04	742.39	738.43	735.69	734.10	732.62	730.05	729.05	728.06	727.25	725.19	724.01	722.79	721.22	719.49	717.72	715.67	710.71	704.90	699.86	693.89	688.41	683.75	678.31	674.02	668.58	663.72	657.99	652.95	647.80	643.87	639.17	632.81	626.56	619.74	612.84	605.77	600.66	595.91	593.44	591.35	586.58	580.44	574.25	567.49	561.85	555.49	549.63	543.89	537.74	531.59	524.44	519.93	514.05	508.98	504.24	499.54	494.39	487.86	483.07	478.58	474.57	469.85	466.22	464.69	463.23	459.43	456.66	452.79	448.38	443.08	437.30	431.67	427.93	426.52	425.68	425.67	424.72	423.16	415.98	415.52	-9999	-9999	-9999	-9999	
758.77	754.02	752.83	750.16	748.50	745.06	743.08	740.72	737.33	734.94	733.08	731.28	728.47	727.19	726.34	724.64	723.32	722.18	720.95	719.25	717.68	714.87	712.38	706.59	701.55	696.37	691.54	686.63	681.86	675.82	670.27	664.97	659.69	654.47	649.19	643.89	639.03	634.74	629.87	625.79	619.90	612.51	606.06	600.60	595.02	588.83	584.47	581.39	577.58	574.39	570.81	565.11	558.57	552.04	544.77	537.96	531.35	525.86	519.78	513.93	507.57	502.16	496.53	491.32	488.11	484.09	479.78	475.15	471.13	467.50	463.84	463.60	458.92	456.68	453.93	449.53	445.11	438.49	431.62	427.53	425.27	424.97	424.60	423.62	422.27	416.26	414.90	-9999	-9999	-9999	-9999	
757.02	754.00	751.33	749.48	747.17	744.98	742.11	738.69	736.27	734.81	732.14	729.86	727.42	725.77	724.14	722.86	721.19	720.34	718.99	717.53	715.36	711.97	707.60	703.58	699.37	693.87	688.03	683.26	678.95	673.70	669.41	664.83	659.96	654.19	648.46	642.39	637.01	631.05	627.13	621.69	617.13	613.35	608.40	602.19	596.09	590.48	584.50	576.96	570.97	568.40	564.70	560.82	556.91	551.51	544.19	536.85	530.63	524.19	518.16	512.90	507.53	501.54	495.24	488.99	483.06	480.26	477.87	474.75	471.82	466.44	464.33	460.24	457.11	454.33	452.53	448.70	444.57	438.14	430.91	425.80	423.77	422.61	422.34	421.02	420.88	416.50	-9999	-9999	-9999	-9999	-9999	
755.56	753.32	750.73	748.92	746.43	743.43	740.22	737.16	735.20	733.46	731.41	729.46	727.18	725.14	722.97	721.37	719.94	718.55	716.40	714.58	712.60	709.87	705.58	700.65	696.05	690.25	685.15	680.44	677.22	671.54	666.05	660.87	657.15	654.09	649.14	643.02	636.96	631.00	625.34	619.78	614.62	609.35	603.86	598.97	594.58	588.88	583.55	577.73	571.57	564.86	556.58	554.20	549.66	547.70	541.84	536.30	530.54	524.64	518.39	512.90	506.76	500.48	494.03	488.01	481.96	477.38	473.77	470.73	468.83	465.54	462.09	457.82	454.86	452.51	449.81	444.38	438.78	433.69	429.39	424.72	422.62	421.09	420.93	420.59	419.22	415.44	-9999	-9999	-9999	-9999	-9999	
754.44	751.82	749.57	747.10	745.24	742.16	738.60	736.08	734.21	732.63	729.83	727.50	726.23	723.95	722.65	721.13	718.93	717.26	713.91	711.22	709.48	706.96	703.91	699.05	693.15	687.43	682.15	677.33	672.85	668.49	663.50	658.39	652.87	648.58	646.86	643.08	637.07	631.94	626.39	619.99	613.47	608.18	602.49	597.63	591.91	586.76	580.39	574.34	568.66	563.30	558.48	554.75	549.06	544.55	536.91	531.13	527.23	522.83	517.59	512.24	505.41	499.07	492.93	486.92	481.62	476.73	472.24	468.66	466.52	463.82	460.88	456.71	453.54	450.43	448.54	446.13	440.19	434.05	427.70	423.92	422.23	420.55	419.73	418.90	418.73	413.68	-9999	-9999	-9999	-9999	-9999	
752.83	750.81	748.97	746.26	744.00	741.67	738.65	736.00	733.68	732.06	729.27	726.69	725.98	724.46	722.62	720.33	717.90	715.97	711.52	708.36	706.12	703.89	701.04	697.76	692.30	686.55	680.92	676.40	671.15	665.96	660.81	656.07	651.51	645.70	640.82	638.08	634.22	629.46	625.47	620.01	615.79	610.79	605.51	600.57	595.11	589.86	584.46	577.24	572.04	565.81	560.15	554.69	550.55	544.98	537.86	531.05	524.78	517.41	512.79	507.60	502.98	497.35	491.63	485.70	480.38	475.80	470.31	467.39	463.47	460.96	458.60	455.47	452.29	448.59	446.84	444.86	440.01	433.79	427.14	422.45	421.18	419.77	419.25	418.93	417.23	-9999	-9999	-9999	-9999	-9999	-9999	
752.54	750.93	748.77	745.46	744.00	741.11	739.05	735.42	732.51	729.93	728.01	726.31	725.21	723.28	721.17	719.01	716.66	713.47	709.51	706.30	703.10	700.17	697.62	693.74	689.44	684.52	680.59	676.74	671.68	665.62	660.13	654.25	648.50	643.29	638.17	632.48	628.19	623.97	620.47	617.80	612.23	609.46	605.54	598.96	593.31	589.36	584.97	579.24	573.87	567.65	561.13	554.98	549.97	543.97	537.83	530.74	524.94	518.13	511.45	505.28	499.27	492.41	489.82	483.34	478.10	473.46	468.30	465.58	461.54	459.18	457.40	454.19	451.22	448.34	445.99	443.73	440.13	434.79	427.21	421.21	419.73	418.55	417.98	416.15	409.91	-9999	-9999	-9999	-9999	-9999	-9999	
752.52	751.15	749.11	746.27	743.41	740.83	738.55	735.40	732.06	729.70	727.71	726.45	725.26	723.09	719.96	717.15	714.53	710.34	707.17	704.47	700.95	697.30	694.10	690.53	685.90	683.04	679.62	675.45	669.93	666.06	662.96	656.47	649.46	642.87	636.76	630.67	625.40	619.47	615.37	611.61	608.28	603.24	601.27	597.42	591.41	585.48	580.32	575.69	569.86	563.80	558.39	553.30	548.17	542.93	535.73	530.43	523.99	516.74	511.04	505.28	498.74	491.80	485.63	477.82	473.22	470.06	467.01	461.54	459.79	457.87	454.88	452.88	450.58	448.17	445.59	443.19	437.04	430.73	425.50	419.70	418.39	417.24	414.85	409.25	-9999	-9999	-9999	-9999	-9999	-9999	-9999	
752.43	750.28	748.72	746.19	742.79	740.42	738.06	735.24	731.82	730.01	728.51	727.27	724.93	722.08	718.57	715.86	712.39	708.72	705.55	702.76	699.60	695.37	691.23	687.87	683.84	679.32	675.52	670.99	666.88	661.60	657.62	655.97	651.57	646.03	640.06	634.17	627.18	620.93	614.60	608.58	603.21	599.32	595.18	590.23	586.65	584.20	579.44	573.50	567.59	562.93	558.11	552.77	548.26	542.78	537.27	531.16	523.71	517.61	510.79	504.68	498.29	491.77	485.59	479.83	475.20	470.47	465.27	460.32	455.26	452.74	451.20	450.35	449.19	446.34	444.34	442.65	437.17	428.79	422.15	418.54	416.28	411.87	407.07	407.04	-9999	-9999	-9999	-9999	-9999	-9999	-9999	
751.53	749.57	747.18	744.70	742.11	740.23	737.74	734.63	731.38	729.96	728.50	727.03	724.80	721.43	717.28	714.07	711.09	708.04	704.49	701.18	697.49	693.65	689.62	685.51	681.35	677.24	672.44	667.17	662.86	658.54	654.04	649.45	647.17	643.88	638.86	633.55	628.70	623.33	616.10	609.37	605.55	600.16	594.78	588.63	581.27	576.89	574.45	573.13	570.82	565.31	559.56	554.54	549.21	543.73	538.87	532.53	525.18	518.06	511.40	505.03	499.19	492.64	486.74	482.07	476.42	470.08	466.20	461.66	456.96	453.22	446.11	444.89	443.18	441.94	441.46	440.82	436.83	428.80	421.66	416.47	411.98	406.34	405.51	-9999	-9999	-9999	-9999	-9999	-9999	-9999	-9999	
749.54	747.52	745.61	743.60	740.79	738.90	737.67	734.78	731.31	729.56	728.18	726.53	724.35	720.88	716.59	713.04	710.39	707.58	704.19	700.72	696.59	692.71	688.68	684.66	679.74	675.62	671.41	666.40	661.95	655.40	649.37	645.47	640.59	638.98	635.05	630.76	625.79	621.37	616.57	612.12	608.42	603.67	596.90	590.95	585.03	578.07	572.18	565.70	563.20	561.86	557.79	552.40	546.24	541.96	537.17	531.85	526.57	520.46	512.03	505.25	498.86	492.82	486.87	481.62	476.62	471.28	466.74	462.26	457.51	453.35	450.67	443.70	437.83	435.02	433.27	431.98	429.89	424.08	416.78	410.32	405.15	403.82	402.33	-9999	-9999	-9999	-9999	-9999	-9999	-9999	-9999	
749.21	746.07	744.61	742.60	740.20	738.63	737.07	734.52	731.66	729.24	727.76	725.98	723.77	720.43	716.85	713.21	710.18	706.85	703.31	699.37	695.72	692.21	688.26	684.06	678.49	674.55	669.40	664.14	659.56	653.53	646.89	642.53	636.43	632.68	629.04	624.61	620.03	617.11	614.35	608.96	603.68	599.56	596.09	592.82	586.91	581.39	573.67	566.94	561.74	554.98	554.23	550.17	544.49	538.67	533.83	529.42	525.20	520.35	513.38	506.37	499.39	493.43	487.40	481.02	475.79	470.97	467.11	462.07	457.05	452.30	449.29	446.18	440.62	435.00	429.77	424.88	425.04	418.93	413.01	406.01	403.49	401.79	-9999	-9999	-9999	-9999	-9999	-9999	-9999	-9999	-9999	
748.43	744.90	743.52	741.81	740.01	738.28	736.65	734.17	731.23	729.17	727.45	725.37	722.91	719.93	717.42	713.92	709.80	705.75	701.73	698.02	695.19	691.61	687.83	683.85	679.10	674.46	668.69	663.68	658.86	651.98	646.85	640.96	635.66	629.82	624.64	619.93	614.83	612.26	608.69	605.18	600.12	594.49	589.58	586.54	583.77	577.87	571.93	565.25	560.46	555.93	550.10	546.35	541.08	534.72	529.02	524.11	519.75	516.72	511.07	504.17	498.35	491.35	485.76	480.73	475.55	471.34	466.96	461.23	456.79	451.72	448.24	445.18	442.20	438.81	432.92	427.42	422.13	414.52	408.44	403.84	402.48	-9999	-9999	-9999	-9999	-9999	-9999	-9999	-9999	-9999	-9999	
746.91	744.55	742.49	741.14	739.37	737.55	735.28	733.58	731.24	729.20	727.02	724.94	722.43	719.88	716.57	712.77	708.79	704.57	700.37	697.30	694.31	690.85	686.06	681.45	677.56	674.26	669.66	664.94	660.30	655.15	649.07	643.88	638.79	633.60	628.33	622.65	617.55	611.96	606.03	602.09	595.97	589.43	586.09	581.02	576.85	572.67	568.51	563.97	559.13	554.38	549.30	544.79	536.41	531.76	525.55	519.43	514.49	510.61	505.87	500.15	494.28	489.37	484.66	480.07	475.45	471.26	465.91	460.09	455.27	451.13	447.39	444.08	441.61	439.53	437.82	431.82	424.80	415.27	407.51	403.55	400.46	-9999	-9999	-9999	-9999	-9999	-9999	-9999	-9999	-9999	-9999	
746.70	744.79	742.23	740.67	739.08	736.91	734.93	733.33	730.97	728.85	726.46	723.92	721.49	718.98	715.35	711.00	707.01	703.32	700.25	696.08	692.70	689.03	683.87	679.43	676.40	673.94	671.06	667.27	662.66	657.59	651.45	646.98	642.03	636.73	631.13	626.73	620.96	615.70	610.49	604.45	597.65	591.29	585.75	580.34	576.58	572.66	567.88	562.30	556.98	549.86	545.99	537.34	531.27	526.49	526.37	515.63	509.80	505.04	500.00	496.05	491.38	486.36	482.50	479.30	474.49	469.45	465.01	459.80	455.22	450.41	446.56	442.88	440.58	438.83	436.93	432.84	424.04	415.44	408.06	402.93	400.05	-9999	-9999	-9999	-9999	-9999	-9999	-9999	-9999	-9999	-9999	
746.21	744.33	743.05	740.39	738.52	736.31	734.11	732.65	730.76	728.12	725.14	722.79	720.32	718.03	713.85	709.82	706.20	702.54	699.48	695.85	692.32	687.41	681.77	677.69	675.38	672.85	668.98	664.54	659.53	654.90	650.04	644.10	639.44	635.41	630.26	624.95	620.73	616.02	611.37	606.26	601.04	596.00	590.57	586.08	581.23	575.84	569.67	562.50	557.80	552.25	546.92	541.36	533.94	528.97	521.19	514.12	507.90	500.80	495.34	490.21	486.22	482.64	478.13	475.09	473.19	468.91	464.95	459.52	454.84	450.21	446.09	442.50	439.76	437.82	436.20	433.57	424.88	417.33	407.08	402.24	399.62	-9999	-9999	-9999	-9999	-9999	-9999	-9999	-9999	-9999	-9999	
746.34	744.24	741.36	739.43	736.99	734.56	732.48	731.51	729.99	727.19	723.99	721.76	719.22	718.15	714.13	708.81	705.77	702.11	698.36	694.53	690.37	685.03	679.54	676.18	673.93	671.79	667.85	663.24	657.83	653.76	648.27	642.58	636.86	632.63	628.74	623.45	618.86	613.75	610.58	604.94	598.98	594.86	590.19	585.16	579.97	574.75	568.47	562.45	556.99	550.65	545.67	539.55	533.82	527.73	520.42	514.37	508.85	503.98	498.14	492.42	486.50	480.02	474.14	469.01	468.00	466.33	464.75	459.38	455.20	450.37	446.22	442.25	439.22	436.80	435.31	432.49	426.06	418.27	405.52	401.58	399.29	-9999	-9999	-9999	-9999	-9999	-9999	-9999	-9999	-9999	-9999	
745.48	744.09	741.85	739.32	737.64	735.48	732.59	730.46	729.37	726.37	723.56	720.99	718.10	715.50	712.07	709.25	705.69	701.31	697.29	692.89	687.62	683.19	679.16	675.60	672.84	670.56	666.62	662.15	657.10	652.02	646.34	641.21	636.22	631.55	626.05	620.80	615.70	612.11	606.76	602.20	598.01	592.74	587.47	581.31	576.49	571.48	565.50	560.44	554.57	549.27	543.97	538.51	531.88	524.43	518.53	512.85	508.01	502.91	497.22	491.00	485.28	479.60	473.95	468.88	462.54	461.92	463.01	459.01	454.68	450.00	446.20	442.39	439.14	436.26	434.62	429.78	423.43	415.40	404.28	401.08	398.92	-9999	-9999	-9999	-9999	-9999	-9999	-9999	-9999	-9999	-9999	
745.67	744.36	742.11	739.65	737.64	735.39	733.11	730.53	728.79	726.49	723.52	721.02	718.23	715.36	712.20	709.46	705.21	700.08	696.56	692.77	688.89	685.08	680.25	675.31	672.08	669.16	665.21	660.75	655.88	650.31	645.05	640.95	636.14	630.64	623.96	618.60	614.11	609.14	603.21	598.82	594.39	590.70	586.01	580.24	574.34	567.96	563.30	558.31	552.48	547.62	542.28	536.51	530.29	523.38	516.06	511.46	505.74	500.76	495.00	489.49	483.29	477.63	472.09	467.24	462.23	455.68	455.73	456.24	453.51	448.92	445.15	441.86	438.86	436.22	433.47	426.47	421.33	416.10	401.97	400.49	398.24	-9999	-9999	-9999	-9999	-9999	-9999	-9999	-9999	-9999	-9999	
746.62	744.54	742.22	739.67	736.77	735.22	732.91	730.59	728.77	726.58	723.34	720.30	717.68	714.73	711.73	709.73	703.67	700.13	696.53	693.11	689.40	685.43	680.56	675.48	671.21	668.27	664.49	659.80	655.06	649.86	644.82	639.70	633.68	628.08	621.42	616.24	612.38	607.82	602.47	597.91	592.51	587.01	580.98	575.72	570.59	565.77	561.20	555.64	550.72	545.97	540.60	534.32	528.16	519.93	514.31	509.41	504.01	498.62	493.24	488.09	481.90	475.97	471.31	466.02	460.57	455.21	448.90	450.35	448.44	444.18	440.85	438.03	435.18	432.79	428.97	424.49	420.61	412.43	401.63	399.67	397.62	-9999	-9999	-9999	-9999	-9999	-9999	-9999	-9999	-9999	-9999	
747.57	744.69	742.08	739.51	735.98	734.39	732.22	729.80	728.21	725.92	722.67	719.61	717.02	714.14	711.52	710.21	704.84	700.86	696.55	691.96	687.82	683.41	678.94	674.14	670.11	667.77	663.90	658.97	654.02	648.37	643.44	638.08	633.20	627.53	622.85	617.72	612.28	606.65	601.12	595.40	588.23	586.83	582.95	577.94	571.34	566.01	559.93	553.93	548.70	541.89	535.59	531.46	526.22	519.17	513.06	507.88	502.65	496.98	491.34	486.30	481.43	476.28	471.34	465.63	460.43	454.27	450.40	443.39	443.42	439.48	434.80	431.47	426.88	423.50	420.52	418.37	415.79	409.23	400.62	397.87	-9999	-9999	-9999	-9999	-9999	-9999	-9999	-9999	-9999	-9999	-9999	
747.26	744.19	740.44	736.45	735.11	733.93	731.50	729.19	726.97	724.57	721.55	718.61	716.72	714.42	711.72	710.81	704.61	699.16	694.65	690.39	685.46	680.88	676.26	673.01	669.82	666.59	662.64	657.44	653.02	648.30	643.17	638.11	633.35	628.95	623.82	618.64	613.17	607.54	601.82	596.79	590.63	583.55	576.90	573.86	568.60	562.62	558.23	553.96	548.65	542.89	536.02	530.08	523.34	516.62	510.70	505.06	500.91	495.08	489.42	483.58	479.04	474.81	471.38	465.74	462.25	457.12	450.39	445.86	439.90	436.93	435.80	434.15	430.92	427.04	423.11	417.62	411.77	404.01	399.53	396.96	-9999	-9999	-9999	-9999	-9999	-9999	-9999	-9999	-9999	-9999	-9999	
746.21	743.37	738.49	735.98	734.36	733.26	731.09	728.85	726.67	724.05	721.23	719.00	716.90	714.47	713.31	708.98	703.18	698.32	693.17	688.66	684.13	680.02	676.04	672.65	669.13	664.66	660.08	656.04	651.59	646.58	642.39	637.60	633.04	628.15	623.35	616.99	611.87	606.03	600.37	596.04	591.49	585.87	578.82	573.08	566.13	558.51	553.68	549.35	545.02	539.60	533.81	527.88	522.61	515.50	510.48	504.64	498.43	491.31	486.31	482.54	475.89	470.62	465.75	463.42	461.46	457.44	453.92	450.43	448.65	446.90	444.90	441.69	438.79	434.05	428.58	422.98	417.83	408.91	398.90	396.06	-9999	-9999	-9999	-9999	-9999	-9999	-9999	-9999	-9999	-9999	-9999	
743.97	741.75	738.78	735.39	733.58	732.75	731.20	728.95	726.67	723.83	721.55	719.53	716.99	714.35	712.94	707.02	702.21	697.36	692.56	688.00	683.97	679.49	675.56	671.90	668.34	663.56	659.00	653.76	649.73	645.44	640.65	635.71	631.32	625.78	620.14	615.59	608.89	603.61	597.37	592.69	587.37	582.70	577.86	572.33	566.72	559.82	554.08	549.06	542.61	534.68	529.09	526.39	519.54	513.09	508.67	503.13	496.81	489.74	484.50	479.55	474.66	471.79	466.52	462.21	457.46	454.83	454.45	452.93	450.56	446.55	443.78	441.60	439.16	436.85	429.46	420.62	413.74	406.70	398.34	395.52	-9999	-9999	-9999	-9999	-9999	-9999	-9999	-9999	-9999	-9999	-9999	
742.90	738.93	735.40	733.55	731.90	731.37	730.75	729.10	726.66	723.59	721.54	719.38	716.67	713.68	710.67	706.49	701.34	696.15	691.09	687.14	682.85	678.38	674.18	670.65	667.05	662.78	657.17	652.27	647.61	643.50	638.47	633.33	629.17	624.15	618.98	613.23	608.31	602.16	597.06	592.72	587.20	581.23	574.82	569.19	564.01	558.08	552.71	547.80	541.76	535.72	530.44	524.85	518.19	512.45	507.15	503.16	499.18	494.10	488.30	484.67	479.07	474.23	468.78	463.91	460.69	455.29	453.27	449.35	449.17	445.60	445.12	442.52	440.47	435.23	425.73	418.40	411.91	404.68	397.98	394.85	-9999	-9999	-9999	-9999	-9999	-9999	-9999	-9999	-9999	-9999	-9999	
742.17	738.09	735.22	732.46	731.26	731.14	729.94	728.43	725.71	723.12	721.01	718.50	715.55	713.46	708.79	704.20	700.23	695.70	691.19	686.88	682.67	677.88	673.43	669.70	665.53	660.89	655.55	651.15	646.17	641.66	636.46	632.33	627.24	622.23	617.66	612.16	604.18	600.21	595.28	590.24	584.78	578.92	574.32	568.06	562.82	557.04	551.71	546.12	539.10	532.61	527.39	521.67	516.60	510.49	506.82	503.81	501.31	495.11	490.09	484.90	479.44	474.85	471.15	467.21	461.53	458.41	453.65	448.82	448.31	444.07	444.19	442.46	438.47	432.15	422.46	417.29	409.71	402.40	397.38	393.64	-9999	-9999	-9999	-9999	-9999	-9999	-9999	-9999	-9999	-9999	-9999	
741.47	738.48	735.86	731.76	730.30	729.95	728.92	727.47	724.94	722.71	720.28	717.47	714.65	712.93	707.16	702.89	698.96	694.40	690.09	685.46	681.55	676.74	671.95	667.47	663.06	660.25	655.69	650.43	645.16	640.22	635.53	630.02	624.37	619.89	613.57	608.14	600.87	594.52	590.24	587.64	583.84	578.46	571.83	565.52	561.27	555.63	550.02	543.76	537.93	531.21	524.77	519.41	513.70	508.07	503.71	500.08	499.31	493.23	487.38	482.21	477.11	472.58	468.81	465.73	461.05	457.27	452.98	448.63	446.88	442.23	439.18	439.62	438.59	430.03	421.84	415.91	408.06	400.58	396.59	393.20	-9999	-9999	-9999	-9999	-9999	-9999	-9999	-9999	-9999	-9999	-9999	
741.19	738.41	735.71	732.05	729.97	728.65	727.24	725.51	724.23	721.85	719.17	716.42	714.25	710.67	706.35	701.45	696.88	693.53	689.29	684.53	680.04	675.23	670.12	666.09	661.61	658.50	654.27	649.71	645.18	641.04	635.81	630.98	625.60	618.95	613.78	606.73	599.07	593.72	588.58	583.85	577.14	572.48	568.15	563.42	558.18	552.90	546.78	540.54	533.50	525.78	519.76	514.72	510.48	505.72	500.05	495.75	494.43	491.27	485.91	480.42	475.71	471.19	467.75	464.71	459.59	455.82	451.50	447.76	444.49	441.65	436.22	432.90	433.23	426.47	419.54	413.69	406.06	399.48	395.72	392.07	-9999	-9999	-9999	-9999	-9999	-9999	-9999	-9999	-9999	-9999	-9999	
742.10	738.90	735.91	733.46	730.55	728.18	725.49	722.97	722.18	720.34	717.77	714.77	713.20	708.70	704.77	700.52	696.45	693.13	689.08	685.11	679.45	674.59	669.79	666.53	661.90	658.32	653.78	648.34	643.36	638.77	633.96	629.02	624.04	619.11	614.34	606.74	601.42	596.31	591.05	586.12	580.48	573.65	566.20	560.50	554.73	547.74	543.57	537.50	531.95	526.53	520.24	515.40	509.27	502.89	494.65	490.36	486.61	486.88	483.35	479.29	475.00	470.65	467.92	463.46	458.75	454.58	450.46	446.81	443.41	440.70	437.25	430.75	425.21	423.00	417.78	411.89	404.65	398.59	395.00	-9999	-9999	-9999	-9999	-9999	-9999	-9999	-9999	-9999	-9999	-9999	-9999	
741.27	739.34	736.64	734.96	731.85	729.33	725.58	722.20	720.15	718.60	716.03	713.78	710.97	707.34	703.60	699.64	695.93	691.78	686.82	682.58	678.21	673.78	669.51	666.10	661.46	657.38	653.26	648.72	643.66	638.40	633.52	628.10	622.71	617.85	612.05	605.66	599.58	595.06	589.49	582.53	578.20	573.41	568.66	562.97	556.61	550.84	545.74	539.14	532.57	525.76	519.93	514.47	507.97	502.98	496.20	489.92	482.66	478.66	476.88	474.53	472.03	470.62	466.50	462.02	457.84	452.75	449.59	446.64	444.02	439.11	437.52	432.49	423.44	416.07	415.09	410.24	403.26	396.19	393.11	-9999	-9999	-9999	-9999	-9999	-9999	-9999	-9999	-9999	-9999	-9999	-9999	
739.14	738.39	737.05	734.78	732.59	730.04	726.40	722.58	719.70	717.35	714.81	712.39	708.78	705.88	701.85	698.21	694.37	690.05	685.62	681.42	677.13	672.65	668.77	665.38	660.14	655.40	651.11	647.30	641.97	636.92	631.94	627.50	622.85	617.95	612.17	604.04	598.10	592.36	586.27	580.22	574.85	569.47	564.13	558.68	553.50	547.98	542.25	536.77	531.60	525.44	519.10	512.83	506.65	500.39	495.34	489.60	483.62	477.91	472.22	467.71	465.68	464.44	461.15	457.77	456.05	451.46	449.11	445.48	442.49	438.74	436.99	432.25	421.67	414.96	406.89	404.85	400.60	395.17	391.61	-9999	-9999	-9999	-9999	-9999	-9999	-9999	-9999	-9999	-9999	-9999	-9999	
735.68	736.47	736.15	734.60	733.12	730.41	727.26	723.00	719.40	716.45	714.38	709.90	707.15	704.15	700.37	696.44	692.61	689.28	685.67	680.99	676.28	671.94	667.97	663.46	659.12	654.49	650.23	645.29	640.84	635.91	630.79	625.96	621.44	616.92	611.37	605.20	597.63	590.85	585.36	579.66	574.11	566.10	561.72	556.04	550.34	544.08	538.65	531.73	527.49	523.09	518.01	512.85	507.33	501.57	495.72	490.35	484.74	479.35	473.90	467.41	462.77	458.71	457.13	455.61	451.59	449.61	447.16	444.59	440.73	438.02	435.90	428.18	420.84	413.69	405.94	398.51	395.84	393.65	389.90	-9999	-9999	-9999	-9999	-9999	-9999	-9999	-9999	-9999	-9999	-9999	-9999	
733.17	733.24	733.64	732.80	732.03	730.65	727.27	722.65	719.57	715.75	712.48	708.74	705.71	702.80	698.97	694.99	690.90	687.70	684.22	680.17	675.48	671.45	667.39	662.32	657.89	652.71	648.07	643.94	639.40	634.95	630.05	624.19	619.71	614.61	610.20	603.49	598.17	591.16	586.04	579.74	572.93	566.96	561.40	553.98	548.94	542.09	535.56	529.65	525.21	517.90	512.96	510.31	509.21	504.42	498.82	492.64	486.47	480.79	475.46	470.77	466.53	461.71	457.73	452.19	448.06	447.30	444.25	439.47	434.54	431.07	428.42	424.41	417.44	409.48	402.81	397.69	393.76	392.69	-9999	-9999	-9999	-9999	-9999	-9999	-9999	-9999	-9999	-9999	-9999	-9999	-9999	
731.11	730.80	730.98	730.77	730.22	728.49	725.66	722.66	719.05	714.99	712.07	708.75	705.50	702.69	698.15	693.64	689.68	685.78	682.31	678.65	674.30	669.84	665.71	660.34	655.87	651.66	647.00	642.54	637.87	633.31	628.79	623.40	618.37	613.10	606.53	600.96	594.21	588.82	583.99	578.84	572.53	566.14	560.19	553.72	547.63	541.21	534.21	528.14	522.68	517.25	511.58	503.21	502.23	501.49	497.45	491.64	485.21	479.30	474.20	469.99	465.93	461.87	457.70	454.71	450.54	448.53	445.64	439.38	434.17	427.97	421.72	417.08	411.45	406.54	399.94	394.17	392.18	-9999	-9999	-9999	-9999	-9999	-9999	-9999	-9999	-9999	-9999	-9999	-9999	-9999	-9999	
729.17	728.49	727.92	727.50	727.38	726.94	724.87	722.80	719.08	715.00	712.02	708.56	705.68	701.77	697.39	692.16	687.89	685.05	681.06	676.62	672.75	667.73	663.16	658.92	654.48	649.17	645.14	640.64	636.42	632.29	627.61	622.08	616.78	610.18	604.19	596.86	591.44	586.58	581.85	577.03	570.99	564.44	558.33	551.95	547.69	539.29	532.49	526.22	520.20	513.90	508.90	503.28	496.91	493.40	490.80	488.37	483.52	477.60	472.79	468.58	464.37	461.49	456.31	453.81	450.40	447.27	444.90	442.95	438.88	429.99	423.59	416.43	409.18	401.25	396.49	393.47	391.55	-9999	-9999	-9999	-9999	-9999	-9999	-9999	-9999	-9999	-9999	-9999	-9999	-9999	-9999	
728.20	726.98	726.71	726.00	725.58	724.86	723.41	722.09	718.24	715.36	712.25	708.89	705.15	701.31	694.86	690.48	686.79	683.77	678.34	675.04	671.09	666.31	661.80	657.07	652.44	648.08	643.23	638.70	634.60	630.76	625.58	621.06	615.08	606.69	600.95	595.58	589.00	584.80	579.73	572.47	566.88	561.16	556.27	550.63	544.02	537.19	531.06	525.36	518.80	512.04	506.44	501.04	496.58	491.02	484.90	482.36	479.09	474.94	470.56	466.35	463.23	458.26	455.26	452.06	449.29	446.24	443.89	442.10	437.83	428.71	421.54	415.93	409.14	401.22	394.67	392.03	-9999	-9999	-9999	-9999	-9999	-9999	-9999	-9999	-9999	-9999	-9999	-9999	-9999	-9999	-9999	
726.93	724.85	724.39	724.53	724.05	722.89	721.82	720.73	717.28	715.12	712.43	709.33	704.61	698.63	693.77	689.81	686.14	681.67	676.68	673.23	669.24	665.31	660.93	656.59	652.16	647.77	642.76	637.37	632.67	628.63	623.62	618.88	609.78	604.56	598.84	593.06	588.07	583.39	576.12	570.43	564.32	557.88	551.71	547.03	541.48	533.91	528.37	523.06	517.82	511.80	505.48	500.02	495.41	491.33	485.01	478.13	473.29	470.79	467.37	464.42	458.94	456.28	452.94	450.56	447.28	445.01	442.76	440.81	433.13	426.13	420.13	414.16	408.18	399.94	394.03	391.96	-9999	-9999	-9999	-9999	-9999	-9999	-9999	-9999	-9999	-9999	-9999	-9999	-9999	-9999	-9999	
725.79	723.72	722.64	722.44	721.59	720.16	719.56	718.51	716.38	715.03	712.16	708.02	703.74	697.69	693.31	688.45	684.63	680.05	675.67	671.61	668.05	663.26	658.38	653.43	649.55	645.55	641.41	635.82	631.39	627.04	621.16	614.70	608.51	603.32	597.61	592.35	587.47	582.35	576.74	570.54	564.58	558.38	551.68	544.77	538.40	531.31	525.20	519.26	513.82	508.43	503.97	498.58	492.52	487.30	484.76	480.19	474.47	469.25	465.26	462.26	458.48	456.70	453.19	450.45	447.34	444.40	442.09	435.75	429.33	424.02	419.09	414.04	407.36	399.37	392.91	391.29	-9999	-9999	-9999	-9999	-9999	-9999	-9999	-9999	-9999	-9999	-9999	-9999	-9999	-9999	-9999	
724.17	722.22	721.48	720.98	720.36	719.18	717.91	716.59	715.49	714.26	711.18	706.47	701.98	697.03	691.80	686.63	683.62	679.18	674.78	669.88	666.55	662.11	657.76	652.79	647.69	642.39	638.07	633.68	628.80	623.61	618.66	613.31	608.06	602.66	595.94	589.20	584.15	579.81	573.18	567.37	561.31	555.80	549.92	543.36	538.09	530.56	523.32	518.51	512.23	507.15	500.68	495.39	489.96	484.37	478.95	476.82	475.39	472.84	468.95	465.48	462.07	456.68	453.33	449.66	446.15	442.89	440.79	431.03	425.58	420.52	415.26	409.62	405.25	396.94	392.03	390.42	-9999	-9999	-9999	-9999	-9999	-9999	-9999	-9999	-9999	-9999	-9999	-9999	-9999	-9999	-9999	
723.49	721.57	720.77	719.58	718.83	717.46	716.43	715.27	714.19	712.50	707.75	704.77	700.22	695.44	690.60	685.39	681.83	677.58	673.92	669.04	664.48	659.77	655.59	651.29	646.20	640.96	635.66	630.65	626.20	621.65	616.76	612.25	607.62	601.44	594.37	587.68	580.31	574.00	570.29	564.42	558.37	552.28	546.53	540.44	534.55	528.47	522.41	517.43	510.92	505.45	499.26	493.88	487.65	482.19	476.85	471.55	468.96	467.90	466.68	464.76	460.15	455.03	451.87	447.97	444.29	440.76	438.29	428.58	422.46	417.70	411.74	406.64	401.42	395.66	389.56	388.73	-9999	-9999	-9999	-9999	-9999	-9999	-9999	-9999	-9999	-9999	-9999	-9999	-9999	-9999	-9999	
723.24	721.47	719.93	718.59	717.22	715.36	714.35	713.61	712.21	708.84	704.88	702.37	698.14	693.63	688.83	683.98	680.06	675.23	671.80	667.08	663.49	658.63	653.54	648.14	643.74	639.47	636.26	631.68	625.34	618.97	614.29	609.83	604.38	599.43	593.38	586.87	580.08	573.44	567.47	561.09	555.05	548.37	543.21	538.05	532.35	526.29	520.85	514.83	508.58	503.15	496.85	491.36	485.98	481.10	475.68	470.20	465.31	462.17	460.38	459.44	457.53	453.83	450.29	446.66	441.96	438.84	435.98	429.48	422.27	416.88	410.47	404.63	400.12	393.59	389.03	386.71	-9999	-9999	-9999	-9999	-9999	-9999	-9999	-9999	-9999	-9999	-9999	-9999	-9999	-9999	-9999	
723.04	721.52	719.22	717.68	715.97	714.15	712.06	710.88	709.10	706.22	703.76	700.72	696.23	691.77	687.03	682.18	678.01	673.91	669.49	664.70	660.75	656.12	650.67	645.81	640.43	636.69	632.19	629.02	624.84	618.47	613.58	607.36	600.92	593.35	591.00	585.74	579.13	573.24	566.68	562.26	555.83	549.36	543.09	538.19	531.77	525.57	519.44	514.17	508.85	502.83	496.50	490.70	485.71	480.34	474.96	468.75	463.84	459.11	455.27	451.78	450.59	449.82	447.75	443.90	440.63	437.57	435.11	428.83	422.33	416.91	410.44	403.38	397.34	391.55	388.77	384.51	-9999	-9999	-9999	-9999	-9999	-9999	-9999	-9999	-9999	-9999	-9999	-9999	-9999	-9999	-9999	
722.25	721.11	719.06	717.50	715.83	713.51	711.21	708.82	707.12	705.15	702.87	699.58	694.43	689.73	686.00	681.57	677.27	672.28	667.06	663.18	658.42	653.22	648.01	642.44	637.53	632.65	627.96	623.79	619.69	617.51	612.23	606.86	601.25	594.79	587.76	581.73	575.67	570.53	564.40	559.41	551.92	544.75	541.17	535.68	532.05	528.07	523.35	517.72	513.07	505.89	500.32	494.95	488.88	483.41	477.78	471.95	466.02	460.12	455.05	450.49	446.13	443.87	442.28	439.46	437.64	435.00	432.88	426.84	422.06	416.04	408.46	401.61	395.82	389.28	385.66	383.53	-9999	-9999	-9999	-9999	-9999	-9999	-9999	-9999	-9999	-9999	-9999	-9999	-9999	-9999	-9999	
721.56	719.93	718.54	717.39	715.66	713.61	710.56	708.40	706.64	704.16	701.41	697.82	692.85	687.92	684.84	680.95	676.34	671.03	666.28	662.34	657.51	652.41	647.62	643.00	637.38	632.15	626.92	621.51	615.67	610.93	609.19	604.91	599.01	592.90	587.18	581.54	574.64	566.46	558.59	555.08	547.71	542.64	538.81	533.67	529.31	527.02	523.74	518.92	513.60	508.28	504.01	497.19	491.02	484.85	479.47	473.49	468.17	462.37	457.02	452.16	447.45	442.82	439.18	436.89	434.24	431.57	426.83	422.90	419.38	414.74	408.18	401.23	394.45	387.98	384.66	384.63	-9999	-9999	-9999	-9999	-9999	-9999	-9999	-9999	-9999	-9999	-9999	-9999	-9999	-9999	-9999	
720.73	719.36	717.68	716.18	714.67	712.57	710.69	708.35	705.49	702.54	699.70	695.48	690.55	684.97	681.52	678.24	674.32	669.38	665.75	661.66	656.71	652.86	647.81	642.61	637.59	632.73	628.61	624.06	617.47	610.05	604.09	601.81	597.53	590.79	584.51	578.32	571.39	566.17	558.78	550.56	544.99	539.68	534.75	530.48	526.22	523.24	521.16	517.03	512.05	506.79	502.48	496.10	489.33	483.84	478.59	473.96	469.38	464.96	460.48	455.45	450.94	446.12	441.87	438.32	434.36	431.18	425.44	418.96	414.74	409.97	406.07	399.94	392.83	390.32	383.89	385.05	-9999	-9999	-9999	-9999	-9999	-9999	-9999	-9999	-9999	-9999	-9999	-9999	-9999	-9999	-9999	
720.15	718.52	716.88	715.59	713.54	711.74	709.02	706.40	702.73	700.64	697.13	692.78	688.23	682.89	678.00	674.48	671.12	667.41	664.09	659.98	655.14	650.53	645.86	641.50	636.30	631.24	625.57	620.00	615.67	610.24	603.68	597.85	591.87	587.74	582.92	576.27	568.39	561.88	556.75	549.63	543.00	536.47	531.34	525.50	521.82	518.28	517.24	513.96	508.91	503.98	500.85	493.35	487.15	482.02	476.48	472.01	468.65	464.84	459.42	454.61	450.99	447.11	443.26	439.72	436.56	432.19	425.25	418.27	412.75	407.61	402.02	397.14	391.71	388.15	382.70	-9999	-9999	-9999	-9999	-9999	-9999	-9999	-9999	-9999	-9999	-9999	-9999	-9999	-9999	-9999	-9999	
718.81	718.18	716.34	714.71	712.92	711.00	708.41	705.09	702.37	699.46	694.71	690.78	685.62	681.21	677.01	672.72	669.15	665.60	662.29	657.71	653.24	648.81	644.15	639.10	634.63	629.88	624.64	618.91	613.52	608.00	602.03	597.35	591.32	583.19	577.81	574.47	567.18	561.06	553.49	547.46	540.92	534.62	529.21	522.95	517.06	513.10	511.26	508.70	504.84	501.78	496.85	490.48	485.21	479.53	474.59	470.56	467.01	463.30	458.82	453.61	449.60	445.57	441.75	437.78	434.22	430.88	422.81	416.51	411.28	406.29	400.56	395.10	392.20	384.61	382.25	-9999	-9999	-9999	-9999	-9999	-9999	-9999	-9999	-9999	-9999	-9999	-9999	-9999	-9999	-9999	-9999	
717.87	717.22	715.91	713.14	711.78	710.16	708.20	704.47	700.83	697.50	690.97	687.17	683.96	680.13	675.52	671.68	667.05	663.04	659.66	655.07	650.89	646.68	642.42	638.03	633.40	627.91	622.65	618.56	612.41	607.02	602.05	595.49	587.69	580.13	575.17	571.14	562.11	557.76	551.24	544.60	538.29	532.57	526.79	521.67	515.88	509.41	505.14	501.91	498.99	495.52	491.36	487.99	482.94	478.17	472.80	469.30	464.65	460.82	456.44	452.28	447.98	443.93	440.00	436.10	432.20	426.75	420.08	414.39	409.48	403.60	398.14	394.04	388.19	382.19	-9999	-9999	-9999	-9999	-9999	-9999	-9999	-9999	-9999	-9999	-9999	-9999	-9999	-9999	-9999	-9999	-9999	
717.31	716.30	715.08	712.66	710.75	708.47	706.42	702.40	699.38	693.34	687.81	685.06	682.24	678.83	674.37	669.89	665.71	660.91	657.27	652.12	647.57	644.24	639.49	635.00	630.52	626.25	621.56	616.35	611.23	605.54	599.50	593.89	588.27	581.75	574.44	567.35	558.62	553.35	547.33	541.08	535.21	530.89	524.95	519.78	514.22	508.28	502.47	497.02	492.26	488.98	485.14	481.60	478.38	475.29	471.15	467.16	462.61	458.62	454.83	450.91	446.66	442.23	438.40	434.54	430.92	424.33	417.58	412.87	406.78	401.29	395.57	392.68	385.11	381.19	-9999	-9999	-9999	-9999	-9999	-9999	-9999	-9999	-9999	-9999	-9999	-9999	-9999	-9999	-9999	-9999	-9999	
715.18	714.45	713.55	711.65	709.21	706.76	704.24	700.99	696.15	688.99	685.80	683.08	680.63	676.22	671.58	667.63	664.41	660.17	655.39	650.34	645.29	640.28	635.92	632.08	628.00	622.98	618.41	613.66	608.57	603.82	598.22	592.06	585.24	579.26	572.25	566.03	558.73	552.62	545.66	538.35	532.47	527.13	522.57	517.66	512.27	506.34	500.94	495.75	489.77	484.09	479.05	475.27	472.07	469.59	467.58	464.30	460.20	456.46	452.50	449.10	445.28	440.99	436.66	432.70	429.35	423.74	416.91	411.84	405.61	399.75	396.35	390.59	383.03	-9999	-9999	-9999	-9999	-9999	-9999	-9999	-9999	-9999	-9999	-9999	-9999	-9999	-9999	-9999	-9999	-9999	-9999	
708.56	707.73	710.99	708.69	706.33	704.04	701.47	698.20	692.63	685.88	682.50	680.68	678.89	674.09	669.19	666.05	662.27	658.45	653.95	649.11	644.20	639.75	634.81	629.47	625.00	620.31	615.71	610.43	606.25	601.77	596.37	590.07	584.15	578.26	570.99	564.19	559.10	549.65	543.62	536.69	531.20	525.74	521.08	515.43	509.29	503.76	498.59	493.09	487.39	482.41	477.26	470.97	466.21	463.25	460.95	458.85	457.01	453.73	450.28	446.67	443.25	439.13	435.15	431.27	427.10	420.83	416.04	409.64	402.99	397.77	393.91	388.62	380.85	-9999	-9999	-9999	-9999	-9999	-9999	-9999	-9999	-9999	-9999	-9999	-9999	-9999	-9999	-9999	-9999	-9999	-9999	
705.63	705.15	704.61	704.87	701.99	698.47	694.92	691.05	687.21	683.09	679.86	677.89	676.15	671.63	667.39	663.85	660.30	656.01	651.76	647.33	642.22	637.98	633.68	629.17	623.99	619.08	614.33	607.89	603.68	597.77	592.89	588.14	582.23	576.90	570.72	563.98	557.13	550.30	544.12	538.26	533.42	528.28	523.74	517.93	511.66	505.76	500.08	493.74	487.92	482.32	475.85	469.18	461.74	457.31	455.24	452.85	450.90	448.67	446.26	443.79	441.23	437.64	433.55	429.75	423.46	418.12	412.40	405.99	399.54	396.23	390.19	385.70	-9999	-9999	-9999	-9999	-9999	-9999	-9999	-9999	-9999	-9999	-9999	-9999	-9999	-9999	-9999	-9999	-9999	-9999	-9999	
702.35	702.93	701.81	699.13	696.04	692.71	689.95	687.74	684.38	680.74	678.19	674.56	672.34	668.95	665.09	661.59	657.81	653.38	649.84	644.79	640.43	635.21	631.16	627.17	622.57	618.34	612.58	606.37	599.62	592.59	587.82	583.86	579.39	573.24	568.24	561.62	555.62	550.56	546.46	542.24	537.36	531.83	526.47	521.29	513.61	507.59	501.72	495.99	489.53	483.46	477.36	470.74	464.68	458.32	450.75	448.09	445.94	443.12	439.81	437.49	434.87	433.64	431.75	427.27	420.45	415.51	409.05	403.05	398.94	392.06	386.60	382.00	-9999	-9999	-9999	-9999	-9999	-9999	-9999	-9999	-9999	-9999	-9999	-9999	-9999	-9999	-9999	-9999	-9999	-9999	-9999	
