ncols        91
nrows        58
xllcorner    218505
yllcorner    6851025
cellsize     10.000000000000
NODATA_value  -9999
800.7921142578125 798.27752685546875 795.200927734375 792.967041015625 789.8817138671875 787.27105712890625 784.3157958984375 781.91815185546875 779.23309326171875 777.6214599609375 773.6087646484375 772.0220947265625 771.86236572265625 772.6396484375 772.13787841796875 770.8323974609375 768.0797119140625 766.4385986328125 765.33489990234375 764.3743896484375 763.69415283203125 762.82470703125 761.2830810546875 759.789306640625 758.2359619140625 756.788818359375 755.47821044921875 752.56097412109375 748.71771240234375 744.3675537109375 740.625732421875 736.76641845703125 733.1348876953125 728.0538330078125 724.3282470703125 721.22918701171875 717.192626953125 713.2828369140625 708.91748046875 706.0909423828125 702.11175537109375 698.457763671875 695.78106689453125 691.91595458984375 686.9517822265625 684.26519775390625 680.4833984375 674.148681640625 668.4251708984375 661.6932373046875 656.58843994140625 649.92950439453125 643.424072265625 637.37921142578125 632.9493408203125 629.79644775390625 624.861572265625 619.1368408203125 613.5208740234375 608.83026123046875 603.69818115234375 598.43548583984375 592.625732421875 587.3726806640625 580.8330078125 575.1116943359375 570.4349365234375 564.64300537109375 558.42266845703125 553.50897216796875 547.86053466796875 543.74615478515625 539.9141845703125 536.1185302734375 532.488525390625 529.472900390625 526.23052978515625 523.09490966796875 520.431396484375 516.287841796875 510.412506103515625 504.952178955078125 500.5325927734375 496.853668212890625 489.873321533203125 484.0574951171875 476.867889404296875 470.8992919921875 465.461669921875 458.34735107421875 458.35345458984375
800.58111572265625 798.318603515625 796.356201171875 793.44537353515625 790.4644775390625 787.88397216796875 784.45526123046875 781.8375244140625 779.47900390625 777.73828125 775.02410888671875 771.98590087890625 771.244384765625 771.682861328125 770.81982421875 769.7568359375 767.89068603515625 766.50006103515625 765.3997802734375 764.1981201171875 762.9554443359375 762.0166015625 760.7095947265625 759.635986328125 757.91961669921875 756.00372314453125 753.6107177734375 751.1651611328125 748.4732666015625 745.74420166015625 741.3480224609375 736.93487548828125 732.415283203125 727.760009765625 724.1922607421875 720.8267822265625 717.67559814453125 713.0654296875 709.9522705078125 706.93817138671875 702.5299072265625 699.44488525390625 694.9522705078125 692.308837890625 688.314208984375 685.21612548828125 680.98138427734375 676.1761474609375 668.798828125 662.0123291015625 656.2357177734375 649.01446533203125 641.42877197265625 633.5164794921875 629.14068603515625 623.582275390625 621.3907470703125 617.74981689453125 613.6429443359375 609.10662841796875 603.23114013671875 596.31768798828125 590.1151123046875 584.6961669921875 579.61187744140625 573.616455078125 567.0765380859375 562.09759521484375 556.9501953125 553.10595703125 550.0045166015625 546.9599609375 543.992431640625 540.7578125 537.03271484375 534.14764404296875 531.513916015625 528.97021484375 525.003173828125 519.64080810546875 514.32513427734375 511.034271240234375 505.649322509765625 499.046905517578125 491.9605712890625 485.128326416015625 477.8660888671875 471.6109619140625 465.690765380859375 458.874969482421875 457.3953857421875
800.7376708984375 797.61077880859375 795.6636962890625 793.60064697265625 790.91839599609375 788.28607177734375 785.011962890625 782.1571044921875 780.20703125 778.021240234375 776.2777099609375 773.32763671875 770.84228515625 769.18914794921875 768.311767578125 768.141357421875 767.9573974609375 766.01092529296875 765.34735107421875 763.622314453125 763.112060546875 760.9654541015625 760.8154296875 760.49334716796875 757.48114013671875 755.85040283203125 753.67633056640625 751.38446044921875 748.6824951171875 745.257568359375 741.0369873046875 736.95355224609375 732.55511474609375 728.25848388671875 724.607421875 720.9559326171875 717.73675537109375 713.96722412109375 710.4215087890625 707.05340576171875 702.4569091796875 699.2852783203125 694.890869140625 692.79876708984375 689.03643798828125 684.857666015625 680.9434814453125 676.18109130859375 670.1121826171875 662.5654296875 655.099853515625 648.332763671875 641.0712890625 632.9141845703125 627.58135986328125 620.9578857421875 615.25140380859375 611.2518310546875 606.74798583984375 601.77423095703125 597.45465087890625 592.5135498046875 586.769287109375 581.91998291015625 576.7772216796875 571.96942138671875 568.82391357421875 564.945068359375 561.8837890625 559.6485595703125 556.98358154296875 553.16668701171875 549.7767333984375 546.7413330078125 543.0797119140625 540.66119384765625 537.8822021484375 534.8150634765625 529.03094482421875 523.6533203125 518.211669921875 511.68817138671875 504.94317626953125 498.66937255859375 493.1217041015625 485.7545166015625 478.10772705078125 472.17266845703125 466.22662353515625 459.329345703125 456.558258056640625
800.80535888671875 798.05078125 795.5010986328125 793.12945556640625 791.464111328125 788.758056640625 785.5018310546875 782.98187255859375 780.43231201171875 777.894287109375 776.265869140625 774.64385986328125 771.74853515625 769.60369873046875 766.961181640625 766.23052978515625 765.9268798828125 765.87103271484375 764.7969970703125 763.47802734375 762.3292236328125 760.81817626953125 760.8255615234375 759.42138671875 757.605224609375 755.73309326171875 753.700927734375 751.66119384765625 749.14752197265625 745.29742431640625 741.0743408203125 737.15380859375 733.12060546875 728.69775390625 724.9537353515625 721.86346435546875 718.42431640625 714.3463134765625 710.9615478515625 707.6488037109375 702.81097412109375 698.9324951171875 695.6986083984375 693.258544921875 689.5306396484375 685.457275390625 680.96990966796875 675.04852294921875 668.64239501953125 661.13665771484375 654.15032958984375 647.20703125 639.70709228515625 632.63800048828125 626.88616943359375 620.040283203125 615.2203369140625 610.42828369140625 605.4432373046875 600.585205078125 596.326904296875 590.93695068359375 586.30108642578125 583.5599365234375 580.12103271484375 577.07952880859375 574.5140380859375 571.62469482421875 568.38909912109375 565.83056640625 563.09381103515625 558.33282470703125 554.9876708984375 552.7633056640625 549.12506103515625 545.54205322265625 541.5406494140625 537.608154296875 533.12860107421875 525.5791015625 519.501708984375 513.18939208984375 507.45263671875 502.110198974609375 493.715057373046875 485.564208984375 478.3348388671875 471.688873291015625 465.454498291015625 460.39569091796875 456.430023193359375
800.29425048828125 798.31256103515625 795.85931396484375 793.86016845703125 791.67791748046875 789.12451171875 786.0721435546875 783.32769775390625 780.67742919921875 778.66949462890625 776.8792724609375 774.7247314453125 773.01080322265625 771.224365234375 768.90814208984375 766.37359619140625 765.4034423828125 764.96099853515625 764.25518798828125 762.9244384765625 762.167236328125 760.75030517578125 760.57244873046875 759.2493896484375 757.63275146484375 755.3604736328125 753.335693359375 751.33209228515625 749.2314453125 745.7340087890625 740.58935546875 736.6221923828125 732.95379638671875 729.3087158203125 725.39971923828125 721.6474609375 718.02447509765625 714.6099853515625 711.08856201171875 707.70111083984375 704.02838134765625 699.7142333984375 696.790283203125 693.39080810546875 688.8927001953125 684.80126953125 678.21600341796875 672.6981201171875 666.09100341796875 658.50799560546875 651.49444580078125 645.9063720703125 639.58349609375 633.08349609375 628.2791748046875 622.0810546875 617.9638671875 613.27386474609375 608.99267578125 603.6051025390625 600.17950439453125 595.19635009765625 590.84051513671875 589.235107421875 586.5203857421875 584.0504150390625 581.92474365234375 577.8133544921875 573.56732177734375 570.0657958984375 566.40411376953125 562.31805419921875 558.23101806640625 554.39117431640625 550.7305908203125 546.24273681640625 542.45037841796875 538.6788330078125 534.0999755859375 526.809326171875 520.34320068359375 516.67071533203125 510.92230224609375 503.970947265625 494.30303955078125 486.412506103515625 478.44378662109375 471.412353515625 464.529937744140625 460.59881591796875 455.798248291015625
799.40765380859375 797.308837890625 795.1611328125 793.25201416015625 791.27398681640625 788.86273193359375 785.83258056640625 783.7728271484375 781.106201171875 778.8271484375 776.71026611328125 775.0400390625 773.17529296875 771.3900146484375 770.593994140625 767.98876953125 766.44525146484375 764.6793212890625 763.8463134765625 763.058837890625 761.79443359375 760.6143798828125 759.8634033203125 758.74908447265625 757.41162109375 755.19049072265625 753.15997314453125 751.1884765625 748.94366455078125 745.8350830078125 741.2010498046875 736.38916015625 732.82647705078125 729.58660888671875 725.67877197265625 721.58514404296875 717.900390625 714.4232177734375 711.11407470703125 707.7530517578125 704.454833984375 700.62298583984375 697.7978515625 693.6650390625 689.1685791015625 683.9927978515625 676.2938232421875 671.0732421875 664.6614990234375 658.59051513671875 652.8775634765625 647.57037353515625 641.9642333984375 636.04364013671875 629.650634765625 625.5018310546875 622.06756591796875 617.53802490234375 613.984375 609.17095947265625 603.63104248046875 598.77239990234375 594.898681640625 591.516357421875 586.89520263671875 584.8541259765625 581.3863525390625 578.29833984375 574.2843017578125 569.51788330078125 565.65997314453125 562.10009765625 557.93133544921875 554.34521484375 550.577392578125 546.4718017578125 542.5413818359375 538.48486328125 533.8587646484375 527.765869140625 521.906982421875 516.19580078125 510.734222412109375 504.512451171875 496.9034423828125 488.50665283203125 478.8519287109375 471.446624755859375 463.581329345703125 459.194305419921875 454.935211181640625
800.05096435546875 797.403076171875 794.17974853515625 792.41912841796875 790.27325439453125 787.9970703125 785.3792724609375 784.14349365234375 781.96771240234375 779.44122314453125 777.703125 775.6824951171875 774.0648193359375 771.45245361328125 770.1573486328125 768.3160400390625 767.5760498046875 765.7637939453125 763.7066650390625 762.9490966796875 761.75115966796875 760.5821533203125 759.3223876953125 758.31011962890625 757.00640869140625 754.964599609375 752.88958740234375 750.810546875 748.4962158203125 745.22821044921875 740.75091552734375 736.54913330078125 734.048583984375 730.52935791015625 726.34033203125 721.968017578125 718.22296142578125 714.1490478515625 710.98626708984375 707.465576171875 704.5086669921875 701.266845703125 698.77313232421875 694.644287109375 690.17303466796875 682.92730712890625 677.65386962890625 671.15765380859375 665.85186767578125 660.0802001953125 655.644287109375 649.3450927734375 643.3665771484375 637.36627197265625 632.6611328125 628.27044677734375 624.61212158203125 619.7034912109375 614.57940673828125 609.6097412109375 605.044677734375 599.97259521484375 595.162109375 590.39996337890625 585.3316650390625 580.6510009765625 577.05926513671875 574.91162109375 574.26776123046875 569.614013671875 564.7069091796875 559.8472900390625 552.57208251953125 548.4171142578125 544.62725830078125 541.4337158203125 536.2362060546875 534.1763916015625 532.54022216796875 526.9248046875 520.48291015625 514.70367431640625 507.522674560546875 500.131591796875 492.80645751953125 484.90435791015625 477.6666259765625 469.96875 463.45501708984375 457.984375 454.557464599609375
800.6148681640625 798.08905029296875 795.103515625 791.866943359375 790.39947509765625 788.03753662109375 785.8529052734375 783.5343017578125 781.87176513671875 780.22894287109375 777.3487548828125 774.6551513671875 773.70361328125 771.47406005859375 769.31005859375 768.65264892578125 767.24560546875 766.3111572265625 764.6435546875 762.66278076171875 761.4605712890625 760.4495849609375 759.16888427734375 758.02020263671875 756.61480712890625 754.6962890625 752.55303955078125 750.536376953125 748.10302734375 745.1514892578125 741.5069580078125 737.84368896484375 734.73358154296875 730.87432861328125 726.49298095703125 722.460693359375 718.359619140625 714.3634033203125 710.68194580078125 708.16729736328125 704.9920654296875 702.3065185546875 699.36163330078125 695.0115966796875 688.9163818359375 683.1995849609375 678.34454345703125 672.6474609375 667.2677001953125 661.8839111328125 655.91619873046875 649.1253662109375 642.83087158203125 636.5079345703125 631.17059326171875 626.11944580078125 621.96502685546875 615.65313720703125 610.6309814453125 605.87017822265625 602.09625244140625 597.565673828125 593.2391357421875 588.73455810546875 584.13873291015625 579.930419921875 575.6529541015625 571.200927734375 567.27154541015625 564.85736083984375 559.771484375 554.06756591796875 549.1141357421875 543.16607666015625 537.3447265625 533.7103271484375 530.6451416015625 525.937744140625 523.8154296875 522.80718994140625 519.2882080078125 512.0618896484375 506.549835205078125 500.937835693359375 494.1534423828125 486.2073974609375 477.19525146484375 469.20281982421875 462.20587158203125 457.55670166015625 454.420440673828125
800.59930419921875 797.8983154296875 795.71966552734375 792.4041748046875 790.2103271484375 788.819580078125 786.23797607421875 784.0677490234375 782.0946044921875 779.53460693359375 777.74395751953125 774.5445556640625 772.7518310546875 772.1015625 769.7581787109375 768.22174072265625 766.8770751953125 766.12872314453125 765.0504150390625 762.5487060546875 760.946533203125 759.95660400390625 758.889892578125 758.2486572265625 756.22344970703125 754.32489013671875 752.10394287109375 749.8033447265625 747.5452880859375 744.83453369140625 741.695556640625 738.1400146484375 734.755859375 730.25726318359375 726.56378173828125 722.632568359375 718.323974609375 714.87957763671875 711.80322265625 707.9398193359375 703.9932861328125 700.7559814453125 697.94580078125 693.65692138671875 687.1422119140625 681.97308349609375 676.57574462890625 670.55615234375 665.37542724609375 659.91259765625 654.10736083984375 647.7755126953125 641.106689453125 633.93548583984375 625.7772216796875 621.2838134765625 617.6396484375 615.5638427734375 609.08837890625 603.254638671875 597.9942626953125 593.7548828125 588.836181640625 584.34722900390625 578.870849609375 575.8211669921875 572.37554931640625 565.9359130859375 562.35076904296875 558.8214111328125 554.96392822265625 550.81298828125 546.04931640625 540.0889892578125 534.73028564453125 529.431640625 525.03277587890625 520.93011474609375 517.07568359375 514.49945068359375 512.47674560546875 507.31036376953125 499.707061767578125 492.738861083984375 488.73541259765625 482.3873291015625 475.435699462890625 468.426055908203125 461.0013427734375 456.460205078125 453.9432373046875
800.6275634765625 798.2789306640625 796.0142822265625 792.8782958984375 790.0850830078125 788.4705810546875 786.46923828125 783.82891845703125 781.34027099609375 779.57177734375 777.46630859375 774.8978271484375 772.9671630859375 771.462158203125 770.1436767578125 768.55975341796875 767.100830078125 765.7508544921875 764.44580078125 761.9757080078125 760.6068115234375 759.4718017578125 758.591064453125 757.6593017578125 755.443603515625 753.7630615234375 751.350830078125 749.10272216796875 747.02593994140625 744.40802001953125 741.0804443359375 737.61663818359375 734.31097412109375 730.60693359375 726.9591064453125 723.2303466796875 718.91485595703125 715.14678955078125 713.2064208984375 708.8802490234375 703.990478515625 700.57861328125 696.87078857421875 692.821533203125 688.23150634765625 682.7218017578125 677.32867431640625 671.17401123046875 666.211669921875 659.92681884765625 653.689453125 648.49005126953125 643.0302734375 635.53466796875 628.09613037109375 619.1339111328125 611.34429931640625 607.65826416015625 605.997314453125 601.899658203125 596.561767578125 592.2177734375 587.1337890625 581.4739990234375 575.037109375 570.1524658203125 566.5225830078125 560.83734130859375 556.82659912109375 553.19049072265625 549.342041015625 545.09039306640625 541.9483642578125 537.5408935546875 531.99700927734375 525.59759521484375 520.26873779296875 515.0318603515625 511.142547607421875 507.394500732421875 504.037322998046875 501.85833740234375 496.313140869140625 488.3717041015625 481.188690185546875 477.4522705078125 470.935455322265625 464.63958740234375 456.92041015625 454.897430419921875 452.7509765625
801.0321044921875 799.02532958984375 796.509765625 794.1700439453125 790.3612060546875 787.85992431640625 786.03399658203125 784.1143798828125 780.955322265625 779.06072998046875 777.446533203125 775.32470703125 773.2005615234375 771.02728271484375 769.61798095703125 769.17486572265625 767.1529541015625 766.05804443359375 764.444091796875 761.6341552734375 760.23828125 758.8817138671875 757.819091796875 756.6298828125 754.72979736328125 752.71136474609375 749.97601318359375 748.0576171875 746.762939453125 744.31427001953125 740.99566650390625 736.78472900390625 733.55401611328125 730.387939453125 727.5655517578125 723.77301025390625 719.331787109375 714.9058837890625 712.1131591796875 708.7188720703125 704.78741455078125 701.3087158203125 697.8408203125 693.434326171875 688.87152099609375 684.3740234375 677.75018310546875 672.272705078125 665.7850341796875 660.3314208984375 654.114990234375 647.5118408203125 641.3076171875 635.7664794921875 628.1949462890625 619.60693359375 611.279296875 604.8065185546875 599.1610107421875 596.26165771484375 592.5146484375 591.0885009765625 586.19036865234375 580.3262939453125 573.72869873046875 567.72625732421875 562.51837158203125 556.7542724609375 552.2244873046875 549.3201904296875 546.759521484375 544.7271728515625 542.01141357421875 538.090576171875 533.1121826171875 528.20367431640625 522.43780517578125 516.7283935546875 513.6893310546875 509.17333984375 504.379058837890625 500.18798828125 495.30499267578125 490.58770751953125 482.784881591796875 476.92852783203125 471.79718017578125 465.799591064453125 459.656890869140625 454.35479736328125 452.114959716796875
801.28106689453125 799.022705078125 796.9454345703125 794.41375732421875 791.18402099609375 788.0633544921875 785.4686279296875 783.94976806640625 781.1763916015625 779.29132080078125 777.16021728515625 775.1871337890625 773.04473876953125 771.2548828125 769.7728271484375 767.99334716796875 767.7694091796875 765.62042236328125 764.4898681640625 761.7191162109375 760.1131591796875 758.1534423828125 757.40478515625 756.21099853515625 754.3631591796875 752.23370361328125 749.2296142578125 747.8056640625 743.8916015625 742.306884765625 739.4737548828125 736.02947998046875 733.6414794921875 730.0916748046875 726.4290771484375 722.9603271484375 718.63214111328125 715.071533203125 711.1715087890625 708.068603515625 704.67431640625 700.73822021484375 697.12640380859375 693.66546630859375 689.66412353515625 684.30316162109375 678.6905517578125 672.01507568359375 667.4146728515625 659.8634033203125 652.8719482421875 647.38604736328125 641.35382080078125 635.24169921875 625.6036376953125 617.57049560546875 612.30487060546875 606.52044677734375 601.11962890625 593.8116455078125 587.12078857421875 582.4039306640625 578.22119140625 574.38214111328125 570.0699462890625 566.20050048828125 563.3245849609375 560.7164306640625 556.9913330078125 554.60205078125 552.35101318359375 549.6536865234375 545.6107177734375 541.0848388671875 535.3424072265625 530.9730224609375 525.92138671875 521.2164306640625 517.45196533203125 513.6402587890625 510.526885986328125 505.69915771484375 498.837188720703125 491.191864013671875 486.886962890625 481.37640380859375 476.08544921875 469.818084716796875 464.53509521484375 457.4298095703125 451.28387451171875
802.4285888671875 799.82037353515625 796.985595703125 794.21246337890625 791.47021484375 788.13348388671875 785.68499755859375 782.80242919921875 781.19012451171875 779.4683837890625 776.463134765625 775.26702880859375 773.3831787109375 770.648681640625 769.41790771484375 768.45269775390625 766.6708984375 765.69696044921875 764.927490234375 762.92303466796875 760.3922119140625 758.0347900390625 756.9637451171875 755.3380126953125 753.689453125 751.609130859375 749.144775390625 746.34283447265625 743.0377197265625 740.27032470703125 737.0609130859375 734.56341552734375 731.08056640625 727.942138671875 723.951416015625 720.16082763671875 717.0238037109375 713.79742431640625 710.451904296875 707.234619140625 703.5672607421875 700.3607177734375 697.361083984375 693.20050048828125 688.99407958984375 683.97540283203125 677.9266357421875 671.8948974609375 666.25994873046875 659.601318359375 652.67877197265625 646.149169921875 639.8836669921875 634.341552734375 628.5526123046875 621.81597900390625 615.38427734375 609.26495361328125 603.72161865234375 597.773681640625 592.4708251953125 587.89544677734375 582.8486328125 578.4366455078125 575.072998046875 571.97454833984375 569.1046142578125 566.079833984375 563.31207275390625 561.07281494140625 558.57330322265625 554.875244140625 549.71380615234375 544.2099609375 539.3907470703125 534.379150390625 529.5543212890625 525.53369140625 521.487060546875 519.75006103515625 513.59619140625 507.388427734375 501.781005859375 497.772735595703125 493.85986328125 487.5546875 480.83837890625 473.661102294921875 466.40234375 459.95111083984375 451.25152587890625
803.649658203125 798.6627197265625 794.84857177734375 792.707763671875 791.9259033203125 788.47589111328125 785.3922119140625 783.41119384765625 780.649658203125 778.380859375 776.8372802734375 775.21453857421875 773.4420166015625 771.72802734375 769.2149658203125 768.1029052734375 766.4222412109375 765.044921875 764.2791748046875 762.58660888671875 760.3477783203125 758.55963134765625 756.30950927734375 754.35137939453125 752.318115234375 750.76141357421875 748.833251953125 745.968017578125 743.8936767578125 741.9168701171875 739.843505859375 736.1512451171875 731.8724365234375 727.7183837890625 724.6270751953125 721.89697265625 718.318115234375 715.30303955078125 713.0499267578125 708.94940185546875 704.7991943359375 700.5343017578125 697.5830078125 693.3255615234375 689.175048828125 683.70770263671875 678.63287353515625 673.1307373046875 667.1641845703125 660.1776123046875 654.7789306640625 649.3936767578125 643.8013916015625 636.92559814453125 629.3228759765625 622.80535888671875 617.341064453125 612.7105712890625 607.22259521484375 601.371337890625 596.3551025390625 591.84423828125 587.24090576171875 584.51531982421875 580.6815185546875 578.8851318359375 575.3583984375 572.0765380859375 569.5125732421875 567.58685302734375 564.6644287109375 558.9547119140625 553.7254638671875 548.72393798828125 545.549072265625 539.54522705078125 535.956298828125 531.89361572265625 528.0164794921875 521.45977783203125 516.340087890625 512.967529296875 508.156036376953125 503.7359619140625 497.472991943359375 490.85748291015625 482.88720703125 475.449462890625 468.92645263671875 461.734222412109375 454.403778076171875
802.13134765625 797.496826171875 793.8623046875 791.0828857421875 789.3079833984375 787.11090087890625 784.85595703125 783.7010498046875 781.365234375 778.8890380859375 776.5272216796875 774.74462890625 772.9918212890625 771.317626953125 770.0252685546875 767.84326171875 766.36376953125 764.31219482421875 763.34600830078125 762.643310546875 759.9659423828125 758.6773681640625 756.7288818359375 753.72064208984375 751.983154296875 750.186279296875 748.20355224609375 745.86309814453125 743.410400390625 740.94342041015625 739.1968994140625 735.756591796875 732.5352783203125 728.46527099609375 725.38916015625 722.73760986328125 719.58831787109375 717.85150146484375 713.99884033203125 709.08087158203125 704.6014404296875 700.15087890625 697.2003173828125 693.0989990234375 688.2384033203125 683.11602783203125 678.35693359375 673.968994140625 667.01605224609375 659.23809814453125 653.42095947265625 648.96600341796875 643.4365234375 635.76116943359375 629.02410888671875 623.7791748046875 619.57342529296875 614.9752197265625 610.3665771484375 605.46337890625 601.34820556640625 597.07940673828125 592.908447265625 588.5152587890625 584.261962890625 581.75970458984375 580.0712890625 576.878662109375 571.44061279296875 566.229248046875 561.69622802734375 558.47308349609375 556.1265869140625 553.51983642578125 549.49365234375 545.1141357421875 540.6314697265625 536.1348876953125 531.11376953125 526.4183349609375 520.45428466796875 514.46966552734375 509.44439697265625 503.7901611328125 498.309295654296875 491.1427001953125 483.378173828125 475.792144775390625 469.784210205078125 463.78936767578125 458.580108642578125
802.21136474609375 798.811279296875 795.3514404296875 792.45458984375 789.462646484375 786.8846435546875 784.240234375 782.32171630859375 780.873291015625 779.31475830078125 776.7774658203125 774.3951416015625 773.2047119140625 771.283935546875 769.20294189453125 768.190185546875 765.9927978515625 763.87310791015625 762.77197265625 760.9683837890625 759.26904296875 758.2802734375 756.09881591796875 753.7210693359375 751.5411376953125 749.9869384765625 748.16107177734375 745.68792724609375 742.61456298828125 739.2188720703125 736.8284912109375 734.79681396484375 732.44708251953125 727.9219970703125 724.474609375 721.194580078125 718.48223876953125 715.6202392578125 712.1568603515625 708.1671142578125 704.20697021484375 700.1461181640625 696.48291015625 692.31134033203125 688.09991455078125 683.0721435546875 678.39935302734375 672.7305908203125 666.15576171875 659.2962646484375 651.7098388671875 645.43017578125 640.0399169921875 633.35650634765625 625.3726806640625 619.4462890625 614.4036865234375 608.40673828125 604.0736083984375 597.770263671875 594.106201171875 590.1412353515625 586.25146484375 582.8912353515625 578.40789794921875 575.43829345703125 572.2034912109375 571.23736572265625 566.33868408203125 560.1417236328125 554.78680419921875 551.15167236328125 547.8424072265625 546.81817626953125 547.89910888671875 544.1199951171875 539.7249755859375 535.77447509765625 531.3319091796875 525.299560546875 519.52734375 513.11279296875 507.4281005859375 500.918548583984375 495.511962890625 489.183990478515625 482.81744384765625 476.513916015625 471.862640380859375 465.567291259765625 460.9644775390625
803.377685546875 799.913330078125 797.00067138671875 794.72174072265625 791.80609130859375 788.4669189453125 785.5887451171875 782.760986328125 780.70611572265625 778.7264404296875 776.920166015625 774.231689453125 772.9161376953125 771.64617919921875 769.52520751953125 767.60784912109375 765.97149658203125 763.211181640625 763.159912109375 761.93646240234375 758.0452880859375 757.7703857421875 755.234375 753.1824951171875 751.3951416015625 749.73345947265625 747.4422607421875 743.9805908203125 741.095703125 738.42413330078125 736.1005859375 735.57763671875 731.7672119140625 727.81488037109375 725.4229736328125 721.7728271484375 718.10821533203125 714.86138916015625 711.1103515625 707.13433837890625 703.191162109375 699.33319091796875 695.40887451171875 690.473876953125 686.373046875 681.6475830078125 676.2552490234375 668.2921142578125 662.56939697265625 656.14422607421875 649.95233154296875 642.3447265625 635.85546875 629.04364013671875 622.029296875 617.41595458984375 613.56756591796875 610.2664794921875 602.5909423828125 598.1815185546875 593.73162841796875 589.7630615234375 585.2962646484375 581.95159912109375 579.37109375 575.760498046875 569.8043212890625 564.74169921875 562.1993408203125 556.5316162109375 551.5330810546875 547.09149169921875 541.8804931640625 539.2479248046875 540.40484619140625 542.1380615234375 539.73968505859375 535.15704345703125 531.5277099609375 526.29486083984375 521.084228515625 515.2010498046875 508.5341796875 502.9913330078125 497.31048583984375 491.9078369140625 487.2523193359375 479.742218017578125 473.14422607421875 467.18487548828125 461.840789794921875
804.46771240234375 801.63800048828125 798.421630859375 795.6973876953125 792.81805419921875 790.59326171875 787.12225341796875 783.98004150390625 781.52899169921875 779.13800048828125 776.556884765625 775.10614013671875 772.69390869140625 771.37554931640625 770.1024169921875 768.09759521484375 766.35113525390625 764.2130126953125 762.8338623046875 761.4248046875 758.280029296875 757.05242919921875 754.59344482421875 751.9830322265625 749.894287109375 747.74102783203125 745.253173828125 742.78875732421875 740.4683837890625 737.96124267578125 736.11224365234375 734.698486328125 731.5521240234375 728.4609375 725.21246337890625 721.90997314453125 717.88897705078125 714.78277587890625 711.2818603515625 707.32562255859375 703.08563232421875 698.90252685546875 694.8199462890625 689.19189453125 684.99420166015625 679.91845703125 673.1226806640625 666.6800537109375 659.59588623046875 652.53802490234375 646.009765625 639.2725830078125 633.92584228515625 629.328125 625.7459716796875 621.87994384765625 617.8602294921875 611.53948974609375 606.55267333984375 603.4664306640625 598.14422607421875 594.3304443359375 591.55145263671875 588.51416015625 582.22979736328125 576.07177734375 572.3551025390625 568.77056884765625 563.21923828125 559.83740234375 554.905517578125 549.0379638671875 543.355712890625 538.03558349609375 533.492919921875 533.6693115234375 535.91485595703125 533.085693359375 528.82781982421875 525.3734130859375 520.0003662109375 514.31402587890625 507.668701171875 502.4801025390625 497.014739990234375 491.6416015625 486.75592041015625 481.714996337890625 474.88824462890625 467.886871337890625 461.55645751953125
805.9793701171875 802.44158935546875 799.62371826171875 797.26318359375 794.24761962890625 791.09716796875 788.420166015625 785.26141357421875 781.881103515625 779.23876953125 776.64300537109375 775.1051025390625 773.020751953125 771.3914794921875 769.9676513671875 769.0146484375 766.9996337890625 764.26776123046875 762.9173583984375 761.2314453125 758.24481201171875 756.64764404296875 754.248291015625 751.77484130859375 749.6280517578125 747.23931884765625 745.44805908203125 743.8720703125 742.28033447265625 739.9495849609375 737.57843017578125 735.107666015625 731.8502197265625 728.05224609375 725.18487548828125 721.75042724609375 718.311279296875 715.0662841796875 711.71417236328125 707.5740966796875 703.38531494140625 699.3330078125 695.738525390625 690.7913818359375 684.79132080078125 677.8792724609375 671.48370361328125 665.64288330078125 660.46881103515625 654.0355224609375 647.23895263671875 641.9969482421875 638.118408203125 634.849609375 631.297607421875 627.84063720703125 621.607421875 615.46258544921875 612.0516357421875 607.65252685546875 602.66455078125 597.334228515625 591.272216796875 585.63958740234375 580.2078857421875 579.55780029296875 578.02166748046875 573.18408203125 568.73681640625 563.40509033203125 557.775634765625 551.91741943359375 545.3497314453125 538.68121337890625 531.939208984375 526.2501220703125 526.908203125 526.91082763671875 526.43499755859375 522.9090576171875 518.1016845703125 512.0009765625 506.382781982421875 500.621307373046875 494.43414306640625 487.535675048828125 481.834320068359375 477.760711669921875 472.7535400390625 467.081085205078125 461.397216796875
806.2674560546875 802.85955810546875 800.47637939453125 797.98980712890625 794.00433349609375 791.0789794921875 788.3031005859375 785.829345703125 782.3623046875 779.4193115234375 777.05963134765625 775.45611572265625 773.216552734375 771.3531494140625 769.4476318359375 769.025634765625 766.53118896484375 764.165771484375 762.967529296875 759.84527587890625 757.09588623046875 755.93695068359375 753.702880859375 751.83660888671875 749.99517822265625 748.51702880859375 747.0133056640625 744.8812255859375 742.45916748046875 739.68115234375 736.8311767578125 734.12371826171875 730.9354248046875 727.66717529296875 725.2442626953125 721.419189453125 718.66339111328125 715.523193359375 712.29217529296875 708.38134765625 704.5042724609375 701.4029541015625 696.6904296875 691.00494384765625 684.556640625 679.3807373046875 675.15032958984375 670.109619140625 664.2896728515625 656.79681396484375 651.96148681640625 648.29132080078125 645.29486083984375 640.5806884765625 634.92681884765625 628.28570556640625 622.43115234375 616.8870849609375 611.9989013671875 607.1533203125 601.1043701171875 594.44781494140625 590.190673828125 587.2353515625 586.37042236328125 584.88140869140625 581.79248046875 577.348876953125 571.97540283203125 565.93328857421875 560.16070556640625 553.4251708984375 546.31585693359375 538.8023681640625 532.0028076171875 525.31805419921875 520.47003173828125 519.1842041015625 517.15325927734375 517.441162109375 516.3416748046875 512.273681640625 507.517791748046875 500.95587158203125 495.033905029296875 488.3963623046875 482.774810791015625 476.20391845703125 470.3331298828125 465.942626953125 460.83685302734375
806.98486328125 803.910400390625 800.05078125 797.24200439453125 793.91943359375 791.58355712890625 789.02813720703125 786.5938720703125 782.829833984375 780.2772216796875 778.18341064453125 776.04718017578125 773.6978759765625 772.0352783203125 769.76617431640625 767.6317138671875 765.27447509765625 763.40509033203125 762.37109375 759.29998779296875 756.41748046875 755.38946533203125 753.19476318359375 751.793212890625 749.3861083984375 747.25115966796875 745.03662109375 742.55218505859375 740.09759521484375 737.6578369140625 734.9725341796875 732.61187744140625 729.976318359375 727.61627197265625 725.8453369140625 722.275634765625 719.422607421875 716.50537109375 713.33673095703125 708.8695068359375 705.3072509765625 702.0345458984375 696.8515625 691.0311279296875 686.354248046875 680.4117431640625 675.37078857421875 670.50146484375 665.662109375 661.8634033203125 657.2691650390625 651.53997802734375 645.93634033203125 641.1534423828125 633.1151123046875 627.9105224609375 622.80767822265625 617.68817138671875 612.509521484375 606.26971435546875 600.3385009765625 596.8406982421875 595.5289306640625 592.8634033203125 589.51123046875 585.1756591796875 580.76055908203125 576.97015380859375 571.1510009765625 565.656005859375 558.9627685546875 551.9835205078125 545.822021484375 539.71038818359375 533.4957275390625 527.50048828125 522.48065185546875 516.31549072265625 510.73626708984375 508.95086669921875 507.761932373046875 505.8345947265625 503.146881103515625 499.812896728515625 493.86334228515625 488.38763427734375 483.008514404296875 476.813873291015625 470.37005615234375 465.87432861328125 460.714630126953125
807.7081298828125 804.091064453125 800.4503173828125 797.3992919921875 794.6343994140625 791.91064453125 789.90234375 786.498291015625 783.9544677734375 781.59222412109375 779.0072021484375 777.260009765625 775.13134765625 772.228515625 770.0208740234375 767.7213134765625 765.045166015625 761.94329833984375 760.70770263671875 757.89404296875 755.91656494140625 755.0740966796875 753.28460693359375 751.30389404296875 748.42041015625 746.05078125 743.73577880859375 741.46295166015625 739.244384765625 736.901611328125 734.37982177734375 732.13555908203125 729.51751708984375 727.3214111328125 725.501708984375 723.7177734375 719.7484130859375 715.8582763671875 712.0186767578125 708.2412109375 705.349609375 701.92681884765625 695.98828125 690.68096923828125 685.63873291015625 680.29107666015625 676.4080810546875 672.74554443359375 668.248046875 662.02825927734375 656.303466796875 650.78118896484375 644.0830078125 637.62628173828125 631.6009521484375 625.9686279296875 620.4627685546875 615.561767578125 610.5184326171875 606.8297119140625 603.72955322265625 601.42266845703125 598.250732421875 594.64910888671875 590.31744384765625 585.6055908203125 580.76654052734375 575.7257080078125 570.98193359375 566.174072265625 559.99310302734375 553.00390625 546.1707763671875 540.6165771484375 534.6673583984375 529.6680908203125 523.5892333984375 518.2313232421875 512.1671142578125 506.0614013671875 500.989349365234375 498.6365966796875 496.322662353515625 492.32562255859375 489.9078369140625 488.384765625 482.744964599609375 476.23602294921875 469.9068603515625 464.084075927734375 459.00054931640625
808.12225341796875 804.4647216796875 801.31500244140625 798.7337646484375 795.42071533203125 792.35272216796875 789.114501953125 786.6968994140625 785.091552734375 781.7091064453125 779.9847412109375 777.50042724609375 774.71112060546875 771.76934814453125 769.2508544921875 767.1253662109375 765.267578125 762.1439208984375 758.9681396484375 756.9534912109375 755.420654296875 754.455322265625 752.07470703125 750.00872802734375 747.6339111328125 745.45880126953125 743.60650634765625 741.50775146484375 739.2425537109375 736.48974609375 733.6436767578125 731.18701171875 729.0216064453125 726.84912109375 725.138427734375 722.10546875 718.67169189453125 714.21514892578125 710.49951171875 706.67864990234375 703.20343017578125 700.4901123046875 695.0137939453125 690.8134765625 685.16644287109375 680.9271240234375 676.42584228515625 672.44091796875 667.1563720703125 662.2113037109375 656.35540771484375 650.92449951171875 645.96112060546875 640.63934326171875 635.77783203125 629.63726806640625 623.85546875 618.4696044921875 614.0640869140625 610.9251708984375 607.0667724609375 603.4725341796875 599.7801513671875 595.32293701171875 590.2669677734375 585.79638671875 581.07135009765625 576.98870849609375 572.58148193359375 567.622314453125 560.58056640625 553.2340087890625 546.775634765625 541.00146484375 535.9437255859375 531.0382080078125 524.9820556640625 519.051513671875 514.247802734375 508.24017333984375 502.36285400390625 497.57757568359375 492.936981201171875 487.254547119140625 483.30865478515625 480.861480712890625 478.65093994140625 473.659088134765625 469.050201416015625 464.26953125 458.0439453125
808.686279296875 805.50506591796875 802.229248046875 798.966552734375 795.4298095703125 792.264404296875 788.4813232421875 786.80810546875 785.64300537109375 782.32257080078125 780.4241943359375 777.98065185546875 774.28729248046875 771.322509765625 768.7608642578125 766.92327880859375 765.2952880859375 762.36181640625 758.431884765625 756.03533935546875 755.02154541015625 753.242919921875 751.5531005859375 749.29144287109375 747.2623291015625 745.00469970703125 742.72015380859375 740.48486328125 738.28179931640625 735.7852783203125 733.388916015625 731.44915771484375 728.9937744140625 726.40185546875 724.52764892578125 721.03863525390625 716.58001708984375 711.71551513671875 708.5595703125 705.27978515625 700.65557861328125 697.10858154296875 694.75494384765625 690.0306396484375 686.25677490234375 682.2662353515625 678.62786865234375 674.47821044921875 669.65191650390625 663.9698486328125 658.65899658203125 653.4449462890625 647.6832275390625 641.8319091796875 634.810791015625 628.90576171875 624.34136962890625 619.845703125 616.13519287109375 612.55908203125 609.213623046875 605.5380859375 600.0517578125 595.4471435546875 590.7744140625 586.31414794921875 581.868408203125 577.4254150390625 572.57861328125 567.3917236328125 561.63623046875 554.669921875 549.3009033203125 543.32586669921875 537.8956298828125 532.76611328125 527.3297119140625 522.22265625 516.36553955078125 509.0950927734375 503.651885986328125 498.53973388671875 494.0751953125 489.513092041015625 484.700927734375 479.2607421875 475.659759521484375 469.9635009765625 464.54766845703125 461.2427978515625 456.22869873046875
809.04547119140625 805.7469482421875 801.7596435546875 797.309326171875 793.68505859375 790.7607421875 788.2618408203125 787.144287109375 785.7611083984375 783.0628662109375 780.4310302734375 777.86083984375 774.627197265625 772.40008544921875 769.5452880859375 766.40533447265625 764.60296630859375 761.44464111328125 756.9794921875 755.63360595703125 754.6787109375 753.2763671875 751.0469970703125 749.38055419921875 747.7843017578125 745.04315185546875 742.74847412109375 740.10302734375 737.835693359375 735.35858154296875 733.0450439453125 730.97821044921875 728.7572021484375 726.54229736328125 725.2896728515625 721.3221435546875 716.776611328125 711.776611328125 708.15869140625 704.60064697265625 699.6983642578125 697.4237060546875 694.98388671875 692.08074951171875 688.1253662109375 683.76312255859375 679.3179931640625 674.351806640625 669.25244140625 663.68316650390625 657.21759033203125 651.581298828125 645.81256103515625 640.6710205078125 634.20648193359375 628.94281005859375 623.23858642578125 619.31182861328125 616.2581787109375 613.52996826171875 610.1512451171875 605.5321044921875 599.89263916015625 594.7364501953125 589.849853515625 585.334716796875 580.872802734375 576.53973388671875 572.302490234375 567.7393798828125 563.23382568359375 558.42034912109375 550.9866943359375 544.7652587890625 540.2130126953125 534.5423583984375 529.24224853515625 523.62176513671875 517.5701904296875 510.629791259765625 505.734588623046875 501.171539306640625 495.755523681640625 491.42022705078125 486.349151611328125 480.886383056640625 476.281646728515625 470.0609130859375 464.741943359375 460.761199951171875 454.720062255859375
809.4119873046875 805.64434814453125 801.335205078125 795.8056640625 792.84576416015625 790.5257568359375 788.68115234375 787.28759765625 785.24346923828125 783.361572265625 780.70220947265625 778.67340087890625 775.896484375 773.4393310546875 770.669189453125 768.5223388671875 765.11810302734375 760.9283447265625 756.443359375 754.974609375 754.33099365234375 753.22802734375 750.883544921875 748.84326171875 747.3695068359375 744.2933349609375 741.93212890625 739.4921875 737.0042724609375 734.76416015625 732.385009765625 730.17779541015625 728.6951904296875 726.8302001953125 725.2958984375 721.28533935546875 716.4371337890625 711.35260009765625 706.091796875 702.2376708984375 699.2760009765625 695.20037841796875 691.54150390625 689.126953125 684.5052490234375 680.257568359375 677.1549072265625 673.8140869140625 668.24188232421875 662.97039794921875 657.02398681640625 650.8046875 645.56695556640625 639.103759765625 633.2012939453125 627.215087890625 622.2109375 618.4168701171875 614.8212890625 611.775634765625 608.67584228515625 605.177490234375 599.74267578125 594.4853515625 589.23846435546875 584.67108154296875 580.5931396484375 575.97515869140625 572.0301513671875 566.9622802734375 562.43603515625 557.9896240234375 553.41009521484375 547.609130859375 542.0753173828125 535.8310546875 530.00531005859375 524.3365478515625 518.78863525390625 513.88525390625 508.653228759765625 503.05328369140625 497.781707763671875 491.72845458984375 486.431671142578125 481.553466796875 475.90338134765625 470.377197265625 464.820648193359375 460.027008056640625 454.8447265625
809.9364013671875 805.50250244140625 799.95416259765625 795.74322509765625 792.856689453125 790.1502685546875 788.3665771484375 786.96295166015625 784.8797607421875 783.101318359375 780.52325439453125 778.0511474609375 775.90325927734375 774.2899169921875 772.0902099609375 769.490478515625 766.6712646484375 762.62353515625 756.16455078125 754.33770751953125 753.90966796875 752.798095703125 750.846435546875 749.79010009765625 746.39111328125 743.8935546875 741.71343994140625 739.32666015625 736.5897216796875 734.4671630859375 732.28424072265625 729.67413330078125 727.49920654296875 724.78448486328125 722.48358154296875 719.12811279296875 715.437255859375 710.5823974609375 705.38720703125 701.3360595703125 697.8218994140625 693.24298095703125 688.41156005859375 684.2369384765625 679.91973876953125 674.8826904296875 670.8465576171875 666.4256591796875 661.85009765625 657.7828369140625 655.081787109375 651.0958251953125 645.411376953125 639.7916259765625 633.49462890625 628.0511474609375 623.4539794921875 618.7396240234375 613.08306884765625 607.60369873046875 605.01654052734375 601.8382568359375 596.64129638671875 591.4432373046875 586.9893798828125 582.30902099609375 577.851806640625 573.89324951171875 569.122802734375 564.18499755859375 559.01812744140625 553.8114013671875 550.0008544921875 546.0281982421875 542.54241943359375 538.38092041015625 534.2882080078125 529.06292724609375 523.49517822265625 518.34967041015625 512.0042724609375 506.273712158203125 499.5535888671875 493.19964599609375 487.104095458984375 481.34521484375 476.67156982421875 472.311798095703125 464.890838623046875 459.05908203125 454.1683349609375
811.13519287109375 805.7178955078125 800.92327880859375 797.0648193359375 793.41851806640625 791.19091796875 788.4464111328125 785.9151611328125 783.98028564453125 781.8050537109375 780.131591796875 778.12451171875 775.62713623046875 773.36956787109375 771.89739990234375 769.1201171875 765.912353515625 761.96759033203125 755.2686767578125 753.76971435546875 753.39007568359375 752.1220703125 751.03515625 750.004150390625 745.52520751953125 743.3570556640625 741.028076171875 738.6800537109375 736.3048095703125 734.513671875 731.9290771484375 728.6627197265625 725.565185546875 723.3668212890625 720.48541259765625 717.62744140625 714.44512939453125 710.94140625 706.84393310546875 702.44647216796875 698.2349853515625 693.53802490234375 687.2196044921875 682.03564453125 676.24896240234375 671.20062255859375 666.51422119140625 661.7489013671875 656.9666748046875 651.99365234375 648.21380615234375 642.7255859375 639.50140380859375 635.704345703125 629.553466796875 624.21929931640625 619.37109375 615.2266845703125 610.32611083984375 605.00079345703125 599.77587890625 596.83892822265625 594.83026123046875 591.2677001953125 586.5201416015625 580.96923828125 576.118896484375 570.809814453125 565.73468017578125 560.3582763671875 555.4908447265625 550.74871826171875 546.12786865234375 541.4024658203125 537.405517578125 534.3367919921875 531.47900390625 528.73834228515625 522.60797119140625 516.0301513671875 510.2977294921875 504.77276611328125 499.32220458984375 492.8192138671875 485.607513427734375 479.819915771484375 475.54241943359375 470.849212646484375 464.0985107421875 458.914764404296875 453.522369384765625
811.787841796875 805.86932373046875 802.3626708984375 797.91790771484375 794.36175537109375 791.6348876953125 789.40087890625 785.9527587890625 784.5103759765625 783.1165771484375 779.77838134765625 777.49951171875 775.6436767578125 773.55194091796875 771.493408203125 769.2808837890625 765.00433349609375 759.21343994140625 755.773193359375 753.06878662109375 752.4215087890625 751.7855224609375 751.431640625 748.048583984375 745.0308837890625 742.6319580078125 740.13916015625 737.69818115234375 735.1229248046875 732.77685546875 730.049560546875 727.21087646484375 723.52587890625 721.237060546875 719.3177490234375 716.5333251953125 713.5982666015625 711.41064453125 707.9996337890625 703.26959228515625 698.705078125 693.3948974609375 688.0362548828125 682.77764892578125 677.3988037109375 672.4677734375 667.4893798828125 660.7880859375 654.15728759765625 648.2174072265625 642.58935546875 637.7276611328125 633.229736328125 629.90576171875 625.75689697265625 620.5013427734375 614.62823486328125 610.98406982421875 605.429443359375 601.66473388671875 599.74822998046875 594.5916748046875 590.47454833984375 586.23468017578125 581.6729736328125 578.9114990234375 575.23040771484375 570.9354248046875 566.433349609375 561.53717041015625 557.04779052734375 551.4566650390625 546.15460205078125 541.5489501953125 535.724609375 530.3203125 526.0787353515625 522.1690673828125 519.6854248046875 515.22247314453125 509.076080322265625 503.583221435546875 498.23834228515625 492.88006591796875 486.908294677734375 481.049896240234375 475.545654296875 469.57830810546875 462.891143798828125 457.7220458984375 451.7532958984375
810.44293212890625 806.620361328125 802.2054443359375 798.66387939453125 795.3846435546875 792.10943603515625 789.4691162109375 787.2799072265625 784.33184814453125 782.93865966796875 780.96575927734375 777.6280517578125 775.3533935546875 773.386962890625 771.7945556640625 769.3988037109375 765.2557373046875 758.3240966796875 754.12860107421875 752.374755859375 751.4794921875 749.96234130859375 748.08355712890625 746.404052734375 744.70416259765625 742.4208984375 739.1768798828125 736.35540771484375 733.435791015625 731.014892578125 728.7508544921875 725.7034912109375 722.20831298828125 720.0496826171875 718.4373779296875 716.44061279296875 713.9122314453125 711.45941162109375 708.9014892578125 706.2274169921875 702.23675537109375 696.68310546875 690.81622314453125 685.16607666015625 679.63690185546875 674.3560791015625 668.2198486328125 662.43572998046875 657.3538818359375 650.29443359375 646.294677734375 641.57037353515625 636.1954345703125 630.819091796875 626.6904296875 623.08123779296875 617.7203369140625 613.44268798828125 610.1358642578125 607.87335205078125 603.371337890625 599.4464111328125 594.29205322265625 588.8111572265625 582.842529296875 579.09002685546875 575.00341796875 567.835693359375 564.21563720703125 560.505615234375 555.98419189453125 551.4122314453125 545.26263427734375 540.6031494140625 534.6475830078125 528.167724609375 523.790771484375 517.39251708984375 512.3975830078125 511.09423828125 507.98687744140625 502.38427734375 497.05615234375 490.289794921875 484.281768798828125 479.33831787109375 473.826873779296875 467.51470947265625 461.47686767578125 455.689208984375 450.6304931640625
809.3985595703125 806.6478271484375 802.93389892578125 799.079833984375 795.649658203125 792.85150146484375 789.92498779296875 787.912109375 785.980224609375 782.78717041015625 781.28515625 778.37628173828125 775.6317138671875 773.4376220703125 771.37152099609375 768.153564453125 763.4044189453125 756.72479248046875 753.99713134765625 752.7294921875 751.144775390625 749.5799560546875 747.7890625 745.959228515625 743.904296875 741.20489501953125 738.2584228515625 735.4268798828125 732.9288330078125 730.71832275390625 728.187255859375 725.20587158203125 722.55609130859375 719.90277099609375 717.9534912109375 715.96588134765625 713.9559326171875 713.5457763671875 712.927001953125 709.0616455078125 703.9796142578125 698.4677734375 692.7388916015625 686.9940185546875 680.6785888671875 675.8958740234375 670.5166015625 664.35833740234375 658.9979248046875 654.49969482421875 649.5428466796875 645.20318603515625 640.6488037109375 635.8929443359375 631.69989013671875 627.27447509765625 623.061279296875 618.99896240234375 614.73846435546875 610.96197509765625 606.14263916015625 600.9989013671875 595.892822265625 591.31280517578125 586.545654296875 581.478759765625 576.90704345703125 571.467529296875 566.06396484375 561.51153564453125 557.4461669921875 552.20379638671875 546.68670654296875 538.6468505859375 532.997802734375 528.30328369140625 524.0096435546875 518.0020751953125 511.36077880859375 505.228515625 502.4613037109375 498.848052978515625 493.90191650390625 488.159576416015625 483.109283447265625 478.6463623046875 473.8939208984375 468.361175537109375 461.987823486328125 456.0682373046875 451.6546630859375
810.2218017578125 806.4150390625 802.4012451171875 799.04541015625 795.9437255859375 793.0001220703125 790.52532958984375 788.06512451171875 785.134521484375 782.64471435546875 781.108154296875 778.60430908203125 776.3660888671875 773.74261474609375 770.78729248046875 764.89715576171875 760.35333251953125 756.0953369140625 753.8123779296875 752.36785888671875 750.47637939453125 749.09527587890625 747.31353759765625 745.5587158203125 743.404296875 741.29974365234375 738.70147705078125 736.0303955078125 733.71856689453125 731.46136474609375 728.7255859375 725.96527099609375 723.1927490234375 720.25799560546875 717.67779541015625 714.9522705078125 713.20001220703125 712.94622802734375 712.8671875 710.256591796875 704.5716552734375 699.25732421875 694.35888671875 689.09722900390625 684.42242431640625 678.58154296875 672.57843017578125 667.54327392578125 662.74749755859375 658.711181640625 653.906005859375 648.42388916015625 643.37921142578125 638.021728515625 632.8472900390625 628.14813232421875 623.3480224609375 618.525390625 613.96026611328125 610.40289306640625 606.340576171875 601.40155029296875 596.4482421875 591.6025390625 586.65008544921875 581.1953125 576.4490966796875 571.11279296875 565.3402099609375 561.32769775390625 555.908935546875 551.1405029296875 545.25189208984375 538.848388671875 532.71820068359375 528.1610107421875 523.0137939453125 515.6767578125 511.08709716796875 506.65240478515625 500.084197998046875 493.064208984375 490.1502685546875 486.65740966796875 481.137847900390625 476.653900146484375 471.613616943359375 466.256072998046875 461.50616455078125 455.74945068359375 450.00604248046875
811.41796875 807.6319580078125 803.19970703125 799.578369140625 796.6192626953125 793.77252197265625 791.1527099609375 788.63140869140625 786.03094482421875 783.2127685546875 779.9332275390625 778.32550048828125 777.046142578125 773.59552001953125 770.5062255859375 763.39453125 758.02862548828125 755.37158203125 753.0506591796875 751.64093017578125 750.354248046875 748.7633056640625 747.1246337890625 744.8900146484375 742.67138671875 740.638427734375 738.50738525390625 736.494140625 734.6104736328125 732.513916015625 729.3231201171875 725.4918212890625 722.49822998046875 720.02203369140625 717.480224609375 713.7349853515625 711.32989501953125 709.49737548828125 708.39013671875 704.38616943359375 701.78643798828125 697.83441162109375 693.6014404296875 689.414306640625 685.0838623046875 679.397705078125 674.81549072265625 669.19049072265625 664.0274658203125 658.54632568359375 653.46630859375 647.4444580078125 642.23406982421875 636.82958984375 631.25189208984375 626.86859130859375 621.710693359375 616.52740478515625 612.52569580078125 607.75433349609375 603.9515380859375 599.54974365234375 595.12139892578125 590.771728515625 585.58807373046875 580.9913330078125 575.279296875 569.81939697265625 564.6424560546875 559.4842529296875 555.00341796875 549.77008056640625 544.5233154296875 538.653076171875 531.130126953125 526.04541015625 521.4776611328125 516.9473876953125 511.50152587890625 506.240081787109375 501.56768798828125 496.358367919921875 490.31842041015625 484.557708740234375 479.2911376953125 475.04388427734375 469.80023193359375 463.4381103515625 456.5396728515625 452.2615966796875 448.71673583984375
811.74456787109375 807.73712158203125 804.31256103515625 800.441650390625 796.6884765625 793.39617919921875 791.230712890625 788.799072265625 786.16583251953125 784.0201416015625 781.3319091796875 778.2303466796875 776.16015625 772.85772705078125 768.6937255859375 761.0399169921875 756.1937255859375 754.46942138671875 753.047607421875 751.40069580078125 749.9085693359375 748.495849609375 747.30816650390625 745.731201171875 743.70196533203125 741.612548828125 739.390380859375 737.34039306640625 735.1519775390625 732.27313232421875 729.0936279296875 724.82080078125 721.499755859375 719.4552001953125 715.7025146484375 712.8004150390625 710.0908203125 708.069580078125 703.81195068359375 700.17083740234375 697.4453125 694.7760009765625 691.1583251953125 688.9482421875 687.55157470703125 679.05712890625 673.48333740234375 668.6275634765625 662.74993896484375 657.3887939453125 652.62335205078125 646.69000244140625 641.1878662109375 635.47381591796875 630.623291015625 626.21868896484375 621.5867919921875 615.51959228515625 610.8409423828125 606.76495361328125 601.7919921875 597.4036865234375 593.1259765625 589.24725341796875 583.9700927734375 579.81597900390625 574.84869384765625 568.1915283203125 563.6336669921875 558.340576171875 553.693115234375 548.1605224609375 542.74688720703125 537.19598388671875 530.70111083984375 525.3321533203125 520.11920166015625 515.86334228515625 510.0733642578125 505.957855224609375 500.79034423828125 495.026153564453125 489.594818115234375 484.044189453125 478.32098388671875 472.98419189453125 467.462310791015625 461.538604736328125 454.730926513671875 450.47174072265625 446.013671875
811.12286376953125 807.31256103515625 803.5640869140625 800.45977783203125 795.26983642578125 792.377685546875 789.966064453125 787.6072998046875 785.66351318359375 783.633056640625 781.532958984375 779.207275390625 776.53759765625 773.208984375 765.8546142578125 758.9437255859375 755.9530029296875 754.060302734375 752.7950439453125 750.9638671875 749.4598388671875 748.109619140625 746.693359375 745.093994140625 743.25958251953125 741.312744140625 739.1844482421875 736.798583984375 734.24078369140625 731.8291015625 728.83343505859375 724.52166748046875 721.1202392578125 719.05072021484375 714.4215087890625 711.21099853515625 707.750732421875 703.7535400390625 700.17236328125 696.27911376953125 693.46575927734375 691.083740234375 688.4342041015625 686.7833251953125 684.965576171875 680.1905517578125 671.63800048828125 667.0047607421875 661.8883056640625 657.1170654296875 651.8895263671875 646.13775634765625 641.13177490234375 635.85198974609375 631.01739501953125 625.9677734375 620.2540283203125 615.1199951171875 611.30908203125 606.5279541015625 601.535400390625 597.1497802734375 590.5565185546875 585.41558837890625 581.11041259765625 578.72021484375 573.81475830078125 566.61834716796875 561.7513427734375 556.201171875 552.12353515625 547.8341064453125 541.95556640625 537.20379638671875 530.1678466796875 523.7115478515625 519.32989501953125 513.95587158203125 509.323883056640625 504.50140380859375 498.90008544921875 493.66839599609375 489.28521728515625 484.193145751953125 477.374664306640625 471.814422607421875 467.211395263671875 463.036468505859375 455.925811767578125 449.52178955078125 444.906219482421875
810.35784912109375 806.65484619140625 802.416259765625 799.09429931640625 795.18115234375 792.39178466796875 789.46612548828125 787.2191162109375 784.85986328125 782.90093994140625 780.57342529296875 779.727783203125 777.0572509765625 773.04443359375 764.83477783203125 758.02734375 754.8095703125 753.19482421875 752.2059326171875 750.7967529296875 748.99853515625 747.29254150390625 745.9296875 744.2139892578125 742.46148681640625 740.625244140625 738.5357666015625 736.0556640625 733.346923828125 731.05181884765625 728.43798828125 725.0391845703125 721.2222900390625 718.7432861328125 714.19219970703125 711.00164794921875 706.6705322265625 702.18206787109375 697.43939208984375 694.9400634765625 692.5986328125 690.2366943359375 687.799072265625 685.44561767578125 682.223388671875 678.5762939453125 672.44976806640625 665.9091796875 661.5927734375 656.548828125 651.302978515625 645.852783203125 639.9017333984375 634.99530029296875 629.5635986328125 623.4334716796875 618.26348876953125 613.670166015625 609.1641845703125 604.9207763671875 600.16387939453125 594.53564453125 589.92425537109375 584.29888916015625 579.637451171875 575.82879638671875 571.23834228515625 564.62188720703125 559.5699462890625 555.8955078125 551.09771728515625 545.8941650390625 540.681884765625 536.162841796875 530.43402099609375 525.13720703125 518.7840576171875 513.09637451171875 508.233154296875 503.605377197265625 498.100830078125 493.132415771484375 487.7681884765625 481.109130859375 475.090179443359375 470.352935791015625 464.907562255859375 460.2119140625 455.412628173828125 449.1488037109375 444.6968994140625
807.7685546875 805.29193115234375 801.80572509765625 798.53863525390625 794.3980712890625 791.89276123046875 788.6158447265625 786.709716796875 785.1900634765625 783.41497802734375 780.95684814453125 779.19866943359375 777.4627685546875 773.439697265625 761.920654296875 756.449951171875 754.515869140625 753.5506591796875 751.72125244140625 750.487548828125 748.75946044921875 746.90087890625 745.296875 743.4542236328125 741.5928955078125 739.717529296875 737.6241455078125 734.87457275390625 732.232666015625 729.9287109375 727.68951416015625 725.01702880859375 721.89117431640625 717.35986328125 713.16259765625 710.71453857421875 706.36041259765625 701.5023193359375 697.20770263671875 694.46575927734375 692.43218994140625 690.488525390625 687.6513671875 683.42559814453125 679.3851318359375 674.58282470703125 669.85302734375 665.7449951171875 660.76531982421875 655.125244140625 650.130126953125 644.29742431640625 638.066650390625 631.658935546875 627.4227294921875 622.97723388671875 618.2552490234375 612.28369140625 606.51690673828125 601.971435546875 598.8135986328125 592.85870361328125 587.7772216796875 583.47296142578125 578.929931640625 574.22161865234375 568.431884765625 562.914306640625 557.4278564453125 553.059814453125 548.7830810546875 543.7301025390625 539.1788330078125 534.3994140625 528.56707763671875 523.96026611328125 519.23370361328125 512.8004150390625 507.400726318359375 501.12225341796875 496.1173095703125 490.835601806640625 485.452880859375 480.151275634765625 474.37744140625 468.438140869140625 463.208221435546875 457.89544677734375 453.5509033203125 448.518280029296875 443.174407958984375
806.73577880859375 803.42449951171875 801.4949951171875 797.18231201171875 793.94537353515625 790.69854736328125 787.98455810546875 786.54290771484375 784.758056640625 783.43707275390625 780.913330078125 778.87738037109375 776.72412109375 771.5535888671875 759.085693359375 755.76531982421875 754.339111328125 752.991943359375 751.8343505859375 750.315673828125 748.4248046875 746.5804443359375 744.7255859375 742.6202392578125 740.7681884765625 738.71917724609375 736.47161865234375 733.71173095703125 730.6407470703125 728.36627197265625 726.276611328125 723.92620849609375 721.61065673828125 717.22265625 712.8748779296875 709.75006103515625 705.32183837890625 701.5147705078125 698.9755859375 697.01580810546875 695.12060546875 692.30572509765625 688.097412109375 683.90191650390625 678.33795166015625 672.7352294921875 667.46490478515625 660.93359375 656.50372314453125 651.93572998046875 647.06231689453125 641.84326171875 636.516845703125 629.63604736328125 622.46978759765625 618.7408447265625 615.098388671875 610.8193359375 606.58990478515625 600.415771484375 595.28790283203125 589.2525634765625 584.6552734375 580.73260498046875 576.995849609375 572.64776611328125 566.3795166015625 561.0391845703125 556.21746826171875 551.433837890625 546.58770751953125 540.25921630859375 534.677978515625 532.6981201171875 527.7371826171875 522.2598876953125 516.3355712890625 511.193267822265625 505.7791748046875 499.9302978515625 494.478118896484375 488.92669677734375 483.497802734375 478.50579833984375 473.395416259765625 467.775634765625 462.08221435546875 454.56488037109375 451.41522216796875 446.369598388671875 441.6282958984375
809.02215576171875 803.671142578125 800.5780029296875 796.55047607421875 794.55242919921875 788.8560791015625 786.98040771484375 785.606689453125 783.4097900390625 779.685791015625 779.568603515625 777.0943603515625 773.98431396484375 766.32867431640625 757.60540771484375 756.092041015625 754.27838134765625 752.8614501953125 751.7236328125 749.88470458984375 748.08642578125 745.93157958984375 743.8768310546875 741.6473388671875 739.71417236328125 737.67657470703125 735.3323974609375 732.403564453125 729.30889892578125 726.5052490234375 724.4971923828125 722.666748046875 720.78424072265625 715.62646484375 711.68170166015625 708.4931640625 705.0272216796875 702.1038818359375 699.8658447265625 697.8944091796875 695.15008544921875 690.82147216796875 687.1749267578125 682.85211181640625 677.916748046875 673.767578125 668.63232421875 662.4481201171875 656.857666015625 651.693359375 646.0147705078125 640.95684814453125 635.4742431640625 628.048828125 620.2237548828125 615.163330078125 610.74444580078125 606.40185546875 602.1956787109375 594.2210693359375 592.64306640625 589.1190185546875 584.36865234375 578.870361328125 574.49835205078125 569.2325439453125 563.4371337890625 558.127197265625 554.30413818359375 550.4268798828125 545.4576416015625 540.1094970703125 534.5401611328125 530.13104248046875 524.106201171875 518.75958251953125 514.2535400390625 508.56243896484375 503.23724365234375 497.9471435546875 492.56158447265625 487.94866943359375 481.303741455078125 475.245086669921875 470.39678955078125 463.64715576171875 457.112335205078125 450.44287109375 448.05267333984375 443.76251220703125 438.37310791015625
809.678955078125 803.48651123046875 799.75115966796875 795.1646728515625 792.7181396484375 788.666015625 786.62261962890625 784.56048583984375 782.7545166015625 779.6409912109375 775.76910400390625 773.084716796875 769.5311279296875 763.24822998046875 758.08721923828125 756.0899658203125 754.7503662109375 753.15814208984375 751.66424560546875 749.8167724609375 747.51629638671875 745.4237060546875 743.11566162109375 740.73529052734375 738.60009765625 736.470458984375 734.19097900390625 731.5865478515625 728.4521484375 725.76708984375 723.9273681640625 722.0882568359375 721.896240234375 715.17388916015625 710.93084716796875 708.4366455078125 705.15283203125 702.5625 699.6434326171875 696.97918701171875 693.26226806640625 689.36480712890625 685.4334716796875 681.50787353515625 676.701904296875 672.0733642578125 667.29876708984375 661.94451904296875 656.2376708984375 650.78656005859375 645.94940185546875 640.881591796875 633.5213623046875 627.26654052734375 622.41156005859375 617.3138427734375 612.9881591796875 607.119384765625 600.920654296875 597.00286865234375 592.665771484375 588.79327392578125 583.76806640625 578.45513916015625 571.95257568359375 568.4378662109375 562.4144287109375 557.966552734375 553.022216796875 548.75738525390625 543.32891845703125 537.8544921875 534.58160400390625 528.28643798828125 521.78125 515.699951171875 511.465972900390625 506.6644287109375 501.1861572265625 496.231109619140625 490.380706787109375 483.75537109375 475.31475830078125 469.17926025390625 465.0399169921875 458.7642822265625 453.048553466796875 447.700927734375 445.8616943359375 439.65869140625 434.268524169921875
808.9508056640625 801.80120849609375 797.65582275390625 794.25262451171875 791.6427001953125 788.4730224609375 786.39349365234375 784.2921142578125 782.236328125 779.52685546875 775.1392822265625 770.873779296875 766.6595458984375 762.27374267578125 758.86090087890625 756.49456787109375 754.788330078125 753.22021484375 751.52508544921875 749.570556640625 747.27764892578125 744.97113037109375 742.40289306640625 740.33514404296875 737.45123291015625 735.2589111328125 733.555419921875 731.1861572265625 727.72772216796875 725.13897705078125 723.47894287109375 722.0030517578125 720.871337890625 714.23284912109375 710.74822998046875 708.09246826171875 704.83843994140625 701.58251953125 698.42999267578125 695.3333740234375 691.85882568359375 687.57867431640625 683.2593994140625 678.81402587890625 673.5328369140625 669.71026611328125 665.2747802734375 660.205322265625 655.41534423828125 650.129150390625 643.8116455078125 638.33258056640625 632.40350341796875 625.3240966796875 619.38165283203125 615.3739013671875 611.30145263671875 604.71197509765625 599.0985107421875 594.73388671875 590.8123779296875 586.7467041015625 582.20880126953125 576.9124755859375 571.63958740234375 566.5125732421875 561.622802734375 555.6953125 550.99957275390625 546.50115966796875 539.20184326171875 534.24090576171875 530.29156494140625 523.63262939453125 517.63836669921875 512.0938720703125 506.150238037109375 500.3106689453125 494.27288818359375 484.87890625 482.223175048828125 474.455810546875 469.781280517578125 466.625946044921875 461.738037109375 455.24005126953125 449.51934814453125 445.54046630859375 442.5479736328125 435.655426025390625 428.708831787109375
807.19873046875 801.31903076171875 795.60833740234375 793.29241943359375 791.08978271484375 788.3416748046875 785.7987060546875 783.9049072265625 781.26806640625 777.87371826171875 773.61065673828125 768.90863037109375 765.13287353515625 761.82940673828125 758.921142578125 755.7802734375 754.702880859375 752.77984619140625 751.0299072265625 749.1690673828125 746.62652587890625 743.97332763671875 741.38916015625 738.871826171875 736.38275146484375 734.09356689453125 732.1251220703125 729.73419189453125 726.14031982421875 724.5765380859375 722.8211669921875 721.458251953125 717.92242431640625 712.7977294921875 709.9251708984375 707.2515869140625 704.652099609375 700.9268798828125 696.505126953125 692.4364013671875 689.478515625 686.3248291015625 682.114501953125 677.7822265625 673.21331787109375 668.494873046875 662.5361328125 658.7252197265625 654.033203125 648.0709228515625 642.36810302734375 635.5955810546875 630.81781005859375 624.2691650390625 619.05889892578125 613.3524169921875 607.6822509765625 603.664306640625 598.43048095703125 594.003173828125 588.7889404296875 583.68292236328125 579.5384521484375 574.34600830078125 568.57476806640625 562.4798583984375 557.848876953125 553.3768310546875 546.6551513671875 537.0732421875 530.8326416015625 527.0738525390625 523.5950927734375 515.63519287109375 507.7388916015625 503.925262451171875 497.189422607421875 491.8262939453125 487.0648193359375 479.93505859375 474.049346923828125 471.723968505859375 467.800567626953125 463.723419189453125 459.26116943359375 453.890899658203125 447.34771728515625 444.7391357421875 439.501312255859375 432.620269775390625 426.974609375
804.06622314453125 799.00018310546875 794.01104736328125 792.61865234375 790.66064453125 787.5120849609375 785.49383544921875 784.0230712890625 781.8082275390625 778.486328125 773.54266357421875 766.63720703125 764.30078125 761.7554931640625 759.3199462890625 756.22808837890625 754.2965087890625 752.32635498046875 750.2047119140625 748.30859375 746.01593017578125 743.093994140625 740.4415283203125 737.4703369140625 734.930908203125 734.03167724609375 732.44146728515625 728.9864501953125 725.24078369140625 723.324951171875 721.17236328125 717.72906494140625 713.8887939453125 711.69818115234375 709.15533447265625 706.02587890625 702.82037353515625 699.3125 695.3670654296875 692.03961181640625 688.9171142578125 685.6710205078125 681.6734619140625 676.2310791015625 671.7669677734375 667.3955078125 661.862548828125 655.7332763671875 650.2833251953125 644.82275390625 639.2142333984375 632.8271484375 626.678466796875 621.50921630859375 616.13201904296875 612.5458984375 607.23297119140625 600.8680419921875 596.40716552734375 591.79864501953125 586.02728271484375 580.77606201171875 572.1961669921875 568.7088623046875 563.98388671875 557.23333740234375 552.513916015625 545.8494873046875 536.15869140625 529.9993896484375 525.71075439453125 523.4769287109375 517.3095703125 509.1494140625 503.27020263671875 498.450836181640625 490.548004150390625 486.311798095703125 478.894805908203125 474.534576416015625 471.746124267578125 468.17645263671875 462.748077392578125 459.4404296875 455.87042236328125 451.35931396484375 445.542083740234375 443.052886962890625 436.775634765625 430.201507568359375 425.5836181640625
801.10467529296875 796.89837646484375 794.11248779296875 791.5703125 789.61236572265625 786.595458984375 783.4180908203125 781.23455810546875 779.855712890625 777.81756591796875 771.94061279296875 766.34637451171875 763.406005859375 761.5880126953125 759.17431640625 756.4127197265625 753.5565185546875 751.38037109375 749.21923828125 747.25982666015625 744.8250732421875 742.06842041015625 739.6181640625 737.86614990234375 736.3626708984375 734.48699951171875 731.41351318359375 728.5262451171875 725.28704833984375 722.7779541015625 720.60430908203125 717.29425048828125 713.80181884765625 710.79766845703125 707.73455810546875 705.52655029296875 702.2581787109375 699.80255126953125 696.6942138671875 692.6846923828125 689.11822509765625 686.2216796875 681.486328125 676.6619873046875 671.239990234375 666.64788818359375 661.96478271484375 657.92572021484375 652.28802490234375 646.7216796875 640.57452392578125 634.5509033203125 628.2952880859375 622.37261962890625 613.65728759765625 606.44635009765625 602.56103515625 596.27197265625 593.79034423828125 589.12518310546875 582.98956298828125 576.674560546875 570.6866455078125 565.50439453125 557.572265625 551.1292724609375 544.7718505859375 537.8497314453125 531.75958251953125 527.2484130859375 521.3604736328125 518.28759765625 513.755126953125 507.850189208984375 500.573577880859375 493.947784423828125 487.331024169921875 482.141357421875 478.0889892578125 473.5009765625 468.430084228515625 462.70977783203125 462.34625244140625 457.895294189453125 450.99981689453125 447.13604736328125 444.885528564453125 440.66302490234375 433.015533447265625 427.3985595703125 424.762451171875
800.3048095703125 797.1741943359375 793.57843017578125 790.5909423828125 787.548095703125 785.549072265625 783.5345458984375 781.539306640625 778.6162109375 773.722412109375 768.12841796875 764.30120849609375 762.53741455078125 761.07537841796875 757.369384765625 755.1458740234375 752.60748291015625 750.21295166015625 747.48052978515625 745.800048828125 744.06317138671875 741.52374267578125 740.38238525390625 739.75531005859375 737.006591796875 734.52362060546875 731.7296142578125 728.07403564453125 725.43597412109375 722.73828125 720.39727783203125 717.20855712890625 713.775146484375 710.21588134765625 706.8189697265625 703.253662109375 700.80908203125 698.18182373046875 694.33612060546875 691.110595703125 687.802734375 684.498779296875 680.27215576171875 675.247802734375 670.4263916015625 665.72314453125 660.499755859375 655.20721435546875 649.1441650390625 643.4014892578125 638.05340576171875 633.8194580078125 628.239013671875 621.90008544921875 612.69842529296875 604.4351806640625 598.2813720703125 592.54248046875 586.89984130859375 583.4805908203125 577.503662109375 570.6878662109375 565.97601318359375 559.92852783203125 553.9227294921875 546.57354736328125 539.8472900390625 534.9342041015625 530.08770751953125 523.9049072265625 517.49212646484375 512.0255126953125 504.956756591796875 505.746246337890625 502.0010986328125 497.380523681640625 491.763671875 486.418975830078125 481.763397216796875 477.23468017578125 469.928680419921875 463.4385986328125 455.220733642578125 456.01580810546875 452.33282470703125 445.906463623046875 444.5849609375 437.916778564453125 431.23675537109375 426.21063232421875 424.56085205078125
796.5479736328125 794.3223876953125 791.84588623046875 788.94921875 784.65576171875 782.2528076171875 781.17822265625 778.6407470703125 776.552490234375 771.8209228515625 765.9393310546875 762.60205078125 761.404052734375 758.951904296875 757.6844482421875 754.0528564453125 751.62841796875 749.255615234375 747.12847900390625 745.12493896484375 743.2442626953125 741.4232177734375 740.9031982421875 740.32037353515625 738.76068115234375 735.4176025390625 731.09759521484375 728.39703369140625 725.0721435546875 722.30340576171875 719.73480224609375 717.18634033203125 713.56396484375 709.09228515625 705.603271484375 702.7813720703125 699.0830078125 695.61712646484375 691.96337890625 688.91107177734375 686.685546875 684.03485107421875 679.34600830078125 673.90777587890625 669.64013671875 664.6854248046875 660.46759033203125 654.29730224609375 647.9239501953125 642.6151123046875 637.47222900390625 630.5391845703125 624.9697265625 616.65484619140625 607.66302490234375 600.86895751953125 595.335205078125 590.466064453125 583.160400390625 577.16650390625 571.2674560546875 568.52374267578125 562.48773193359375 556.6171875 551.001953125 545.28826904296875 538.41168212890625 533.54095458984375 528.57855224609375 520.7305908203125 513.97064208984375 506.71630859375 501.116119384765625 498.57733154296875 496.73675537109375 493.34613037109375 489.61761474609375 483.936920166015625 478.88250732421875 474.08514404296875 468.876708984375 463.14825439453125 456.781280517578125 450.9619140625 448.61846923828125 443.972808837890625 441.567718505859375 434.621978759765625 429.78082275390625 424.935516357421875 425.35565185546875
794.30511474609375 792.03179931640625 789.7103271484375 786.89306640625 783.30242919921875 780.67303466796875 777.7313232421875 775.91375732421875 772.49945068359375 767.4632568359375 762.7845458984375 760.97344970703125 759.98541259765625 757.97625732421875 756.10009765625 753.35015869140625 750.7176513671875 748.143798828125 746.18890380859375 745.01519775390625 742.89642333984375 743.1917724609375 741.8380126953125 740.6319580078125 738.18359375 734.83966064453125 731.27154541015625 728.388916015625 725.06597900390625 721.88824462890625 718.735107421875 715.83563232421875 713.36224365234375 709.38397216796875 704.12640380859375 701.590087890625 699.29229736328125 695.924072265625 691.1678466796875 687.6695556640625 684.8846435546875 681.55389404296875 678.353759765625 673.8065185546875 668.11474609375 663.5206298828125 658.571044921875 653.1431884765625 647.97186279296875 642.0037841796875 636.3262939453125 626.724853515625 620.2347412109375 608.99530029296875 604.500732421875 599.3358154296875 592.4764404296875 586.7073974609375 582.4013671875 575.1246337890625 570.0799560546875 563.3853759765625 559.11767578125 553.32733154296875 547.45233154296875 542.364501953125 537.7906494140625 530.246337890625 524.203857421875 516.37176513671875 510.072021484375 504.12542724609375 498.9501953125 494.5218505859375 490.793853759765625 488.021392822265625 485.397705078125 481.88262939453125 476.901123046875 471.68560791015625 466.50604248046875 461.86224365234375 457.1177978515625 451.397857666015625 446.182159423828125 443.66632080078125 439.706939697265625 432.66082763671875 429.085845947265625 424.218963623046875 425.06591796875
792.11956787109375 790.143310546875 787.2557373046875 785.5572509765625 781.66650390625 778.73687744140625 775.9818115234375 773.137939453125 765.3599853515625 762.23651123046875 761.38330078125 759.55572509765625 757.925048828125 758.0775146484375 755.146728515625 752.20623779296875 750.0531005859375 748.1014404296875 746.0501708984375 744.86737060546875 744.6949462890625 744.09417724609375 742.30401611328125 740.5506591796875 738.69012451171875 736.4881591796875 732.202880859375 727.39764404296875 724.13275146484375 720.994384765625 717.44671630859375 715.036865234375 712.69769287109375 708.57403564453125 703.894287109375 700.53375244140625 697.37677001953125 694.2265625 690.52142333984375 686.794677734375 683.0059814453125 680.14874267578125 676.264892578125 671.681640625 667.50311279296875 662.411865234375 656.37982177734375 650.2408447265625 644.5867919921875 639.48748779296875 632.82818603515625 624.830810546875 615.12945556640625 608.79620361328125 603.00811767578125 593.4283447265625 588.8394775390625 582.784423828125 578.76580810546875 574.22918701171875 568.3568115234375 560.467041015625 552.12274169921875 547.25799560546875 541.26580810546875 538.11358642578125 532.40679931640625 526.8621826171875 521.5208740234375 514.9158935546875 508.98284912109375 503.302001953125 497.07305908203125 492.270111083984375 488.240814208984375 482.46923828125 480.177764892578125 478.36993408203125 474.082489013671875 469.4727783203125 464.304931640625 459.34619140625 454.751800537109375 448.773529052734375 444.4827880859375 443.30029296875 437.073089599609375 431.260986328125 428.726715087890625 424.13116455078125 424.1920166015625
790.5675048828125 787.125244140625 783.34130859375 781.6474609375 779.8175048828125 776.45233154296875 774.839599609375 768.71295166015625 761.3218994140625 760.9127197265625 760.0821533203125 759.16796875 757.94781494140625 756.684814453125 754.0396728515625 751.35504150390625 748.206298828125 747.4415283203125 746.0308837890625 744.443115234375 744.447509765625 744.481689453125 743.797607421875 741.9993896484375 739.815673828125 737.70721435546875 732.56768798828125 726.62872314453125 723.71466064453125 720.67596435546875 717.304931640625 715.6405029296875 713.8701171875 709.13848876953125 704.60693359375 700.4185791015625 696.3388671875 692.0411376953125 687.9495849609375 684.57122802734375 681.21728515625 677.168212890625 673.6116943359375 669.2305908203125 665.6029052734375 661.07269287109375 655.115234375 648.6861572265625 642.3927001953125 636.66754150390625 627.70452880859375 619.82855224609375 613.78680419921875 607.32177734375 598.43548583984375 593.4302978515625 587.9815673828125 582.3604736328125 577.013427734375 571.897216796875 565.94329833984375 559.79876708984375 553.1917724609375 545.9329833984375 537.86187744140625 531.4393310546875 527.12408447265625 522.8565673828125 517.9654541015625 513.06475830078125 507.6021728515625 501.009490966796875 496.1676025390625 490.68048095703125 486.24951171875 482.6800537109375 478.44427490234375 474.3328857421875 469.668243408203125 465.299102783203125 460.473236083984375 456.0501708984375 451.062713623046875 446.310577392578125 443.558685302734375 441.95269775390625 434.87017822265625 429.785400390625 428.59759521484375 424.3096923828125 423.285888671875
789.2559814453125 785.33111572265625 781.6153564453125 778.96038818359375 775.76190185546875 773.411376953125 771.30450439453125 762.49884033203125 760.4019775390625 759.90435791015625 759.26690673828125 758.0589599609375 756.50140380859375 755.02569580078125 752.8599853515625 749.6468505859375 746.8037109375 746.101318359375 745.56097412109375 744.49737548828125 744.4329833984375 745.00018310546875 744.3958740234375 742.53271484375 741.40826416015625 738.2982177734375 731.38848876953125 725.84149169921875 723.661865234375 720.84423828125 717.78729248046875 714.6007080078125 711.02392578125 706.6746826171875 702.16473388671875 697.70416259765625 693.86883544921875 690.47393798828125 686.7095947265625 683.83563232421875 680.289306640625 675.99029541015625 671.5091552734375 667.1702880859375 662.7874755859375 658.5555419921875 653.052001953125 647.5380859375 640.3502197265625 630.7418212890625 624.28179931640625 618.52154541015625 611.409423828125 601.7144775390625 597.062744140625 592.42822265625 587.85986328125 582.6873779296875 576.574462890625 570.14788818359375 563.39483642578125 557.47357177734375 550.50054931640625 542.36383056640625 536.4422607421875 529.9256591796875 522.9212646484375 517.81231689453125 513.9459228515625 509.60418701171875 504.868499755859375 501.48492431640625 495.61566162109375 490.22064208984375 485.481781005859375 481.292755126953125 476.83856201171875 472.944183349609375 468.1749267578125 464.696075439453125 458.80517578125 454.24493408203125 449.178070068359375 444.99169921875 442.664031982421875 441.41937255859375 433.8409423828125 429.03363037109375 427.98040771484375 424.24237060546875 422.63433837890625
788.67596435546875 783.7635498046875 780.2899169921875 776.8543701171875 773.0673828125 769.2791748046875 766.3887939453125 761.40869140625 759.41778564453125 759.0035400390625 758.376953125 757.431640625 755.9488525390625 754.28863525390625 752.10552978515625 749.087646484375 746.120361328125 745.58233642578125 745.5904541015625 744.60546875 744.73748779296875 745.7877197265625 744.9552001953125 742.865234375 740.47137451171875 737.59918212890625 729.6253662109375 724.5186767578125 722.3780517578125 719.5848388671875 716.28070068359375 713.620849609375 709.754638671875 705.59765625 701.689697265625 697.5242919921875 693.4122314453125 690.01702880859375 686.677978515625 682.376220703125 678.1629638671875 674.74896240234375 670.4462890625 664.73480224609375 660.40118408203125 656.26983642578125 650.06646728515625 643.8126220703125 633.21502685546875 628.0467529296875 620.82281494140625 615.48681640625 607.6524658203125 599.72735595703125 595.49658203125 590.061767578125 585.607177734375 581.31597900390625 574.56317138671875 565.5155029296875 559.228271484375 553.107177734375 545.89666748046875 537.3812255859375 535.061279296875 530.088134765625 523.4549560546875 516.4302978515625 508.94427490234375 502.09429931640625 500.15594482421875 496.74774169921875 496.89404296875 492.358062744140625 487.23980712890625 481.82000732421875 476.5155029296875 471.8385009765625 467.712646484375 464.125396728515625 459.85845947265625 453.946746826171875 446.824462890625 445.3402099609375 441.5794677734375 440.480865478515625 432.82305908203125 427.65338134765625 427.391204833984375 424.625 422.167022705078125
787.8856201171875 783.38671875 779.7158203125 776.5341796875 773.001953125 768.25250244140625 763.7127685546875 760.1417236328125 758.80169677734375 758.4517822265625 758.61480712890625 757.20953369140625 755.72265625 753.934326171875 751.6094970703125 748.62945556640625 746.0062255859375 745.2550048828125 745.27703857421875 744.90753173828125 745.399169921875 746.1080322265625 746.2314453125 744.02099609375 739.3197021484375 735.3634033203125 726.25634765625 722.86541748046875 720.00592041015625 717.6907958984375 715.76177978515625 712.9276123046875 709.4163818359375 706.0308837890625 702.41766357421875 698.511962890625 693.8626708984375 690.2530517578125 686.6468505859375 682.3609619140625 675.9554443359375 671.20916748046875 667.70001220703125 663.01446533203125 655.90936279296875 651.5758056640625 643.88604736328125 637.6103515625 630.45245361328125 624.19842529296875 618.62152099609375 612.811767578125 606.3857421875 600.0067138671875 593.5472412109375 588.8939208984375 583.315673828125 578.40716552734375 569.566162109375 560.84295654296875 554.91839599609375 549.9796142578125 543.34765625 537.72772216796875 532.38873291015625 526.44873046875 521.0904541015625 514.021484375 508.1619873046875 502.15545654296875 494.466949462890625 489.54736328125 490.40106201171875 489.475616455078125 486.53399658203125 482.60125732421875 477.0318603515625 472.11346435546875 466.827667236328125 462.1229248046875 458.814849853515625 452.99835205078125 448.126220703125 443.3011474609375 440.5311279296875 438.4205322265625 431.1829833984375 426.598968505859375 426.817413330078125 424.39996337890625 421.58770751953125
787.277587890625 783.07373046875 780.3370361328125 777.4327392578125 774.66162109375 770.2684326171875 761.9681396484375 759.40289306640625 758.3367919921875 756.3033447265625 757.35455322265625 756.81634521484375 754.8837890625 753.5401611328125 751.1639404296875 748.51934814453125 746.0611572265625 745.22930908203125 744.906005859375 744.899658203125 744.67462158203125 746.1820068359375 745.7119140625 744.3343505859375 737.2042236328125 730.62451171875 725.7193603515625 721.550048828125 717.3134765625 715.169921875 713.7886962890625 710.9683837890625 707.91619873046875 704.66693115234375 700.83203125 696.86468505859375 692.75872802734375 688.64434814453125 683.76898193359375 679.7286376953125 675.0640869140625 669.331298828125 664.74493408203125 659.97052001953125 652.92657470703125 647.42132568359375 640.7874755859375 633.1864013671875 629.241455078125 623.86602783203125 618.2548828125 612.83966064453125 607.143798828125 598.54705810546875 591.0076904296875 585.3763427734375 578.4803466796875 572.3551025390625 564.763916015625 559.70404052734375 552.62054443359375 546.2347412109375 540.7584228515625 535.8651123046875 529.650390625 522.7684326171875 515.06378173828125 510.395751953125 505.53759765625 497.87860107421875 492.277435302734375 486.190887451171875 482.07220458984375 482.069122314453125 480.46710205078125 478.0701904296875 474.84307861328125 469.474151611328125 465.315643310546875 461.074798583984375 457.286041259765625 451.90234375 447.983306884765625 441.492706298828125 439.758880615234375 436.14959716796875 429.06134033203125 426.2431640625 426.87359619140625 424.2374267578125 421.20458984375
787.61083984375 783.642333984375 780.56549072265625 777.1746826171875 773.282958984375 766.056884765625 760.61798095703125 758.2698974609375 755.9388427734375 755.98193359375 756.09619140625 755.422607421875 753.99822998046875 752.8026123046875 750.72589111328125 748.12615966796875 745.4725341796875 744.6356201171875 744.77093505859375 744.32037353515625 744.32574462890625 745.189453125 745.5582275390625 743.39447021484375 734.948486328125 729.6617431640625 725.61492919921875 721.077392578125 716.5462646484375 713.76593017578125 711.636962890625 709.05133056640625 706.2176513671875 703.04327392578125 698.72613525390625 693.610107421875 689.32244873046875 686.81719970703125 682.18353271484375 676.99346923828125 672.13055419921875 665.846923828125 659.53875732421875 654.56549072265625 648.39453125 643.08062744140625 637.37445068359375 631.704833984375 626.0308837890625 620.91290283203125 616.94903564453125 610.461669921875 602.5845947265625 595.50970458984375 587.5062255859375 579.7459716796875 573.931396484375 567.72564697265625 560.9788818359375 555.92852783203125 550.70648193359375 544.9835205078125 539.67828369140625 532.5308837890625 523.942626953125 517.2855224609375 512.7928466796875 506.582366943359375 498.091217041015625 495.755035400390625 490.91400146484375 484.720184326171875 478.41741943359375 477.439727783203125 474.817657470703125 472.59722900390625 469.61602783203125 467.03802490234375 463.39483642578125 458.92974853515625 455.813079833984375 450.89453125 444.38519287109375 438.85968017578125 437.679840087890625 432.3741455078125 426.737030029296875 426.277557373046875 426.125 424.14666748046875 420.88385009765625
786.9183349609375 783.3399658203125 780.219970703125 775.900634765625 771.60406494140625 763.32586669921875 760.00872802734375 758.24951171875 755.84173583984375 755.78961181640625 755.2496337890625 754.6151123046875 753.6182861328125 751.89508056640625 750.189208984375 747.510009765625 744.151123046875 743.7220458984375 743.23944091796875 743.1065673828125 742.7130126953125 742.960205078125 743.5723876953125 739.92913818359375 733.54736328125 729.8526611328125 725.4591064453125 720.61956787109375 716.3843994140625 712.3629150390625 709.5460205078125 706.83740234375 703.9937744140625 701.5213623046875 697.4901123046875 692.6641845703125 688.08001708984375 684.1710205078125 680.21435546875 675.3966064453125 668.6470947265625 662.4874267578125 657.29290771484375 652.057373046875 646.8287353515625 641.8856201171875 636.24566650390625 630.4642333984375 624.13958740234375 619.15826416015625 612.4556884765625 605.214111328125 597.230712890625 590.403564453125 583.34442138671875 576.21636962890625 571.155029296875 565.7828369140625 559.6060791015625 554.18792724609375 547.8131103515625 542.0223388671875 534.87493896484375 528.089111328125 521.4388427734375 515.56640625 507.75634765625 500.5096435546875 496.857818603515625 492.1739501953125 489.17926025390625 487.078033447265625 480.571136474609375 474.005523681640625 472.6837158203125 468.7923583984375 466.12908935546875 463.88067626953125 459.63726806640625 456.374267578125 453.1756591796875 449.863494873046875 442.330474853515625 436.575927734375 436.3817138671875 430.058013916015625 425.694580078125 425.5830078125 425.55584716796875 424.000213623046875 420.438568115234375
786.2626953125 782.87066650390625 779.22772216796875 775.45538330078125 771.4041748046875 762.55670166015625 759.03045654296875 757.89227294921875 755.71343994140625 755.33544921875 754.097900390625 753.1614990234375 752.308349609375 751.080078125 749.15643310546875 746.5721435546875 742.74542236328125 741.05072021484375 740.8115234375 740.60626220703125 740.345947265625 740.3065185546875 739.91546630859375 735.93865966796875 731.4835205078125 728.4898681640625 723.35809326171875 719.61224365234375 715.18414306640625 711.4200439453125 707.81744384765625 705.01092529296875 701.496337890625 698.7445068359375 695.20135498046875 689.832275390625 685.60205078125 681.2940673828125 676.3704833984375 671.64471435546875 666.3038330078125 660.4849853515625 654.63555908203125 649.75286865234375 644.7303466796875 639.5579833984375 633.53466796875 627.248779296875 622.27886962890625 615.998046875 606.441162109375 600.94256591796875 593.7041015625 586.356201171875 580.41204833984375 574.2410888671875 567.906494140625 562.034423828125 555.460693359375 550.221923828125 544.00299072265625 538.01763916015625 532.199951171875 525.781494140625 519.0013427734375 513.722900390625 507.63177490234375 502.547271728515625 495.7266845703125 489.492340087890625 485.2955322265625 483.2763671875 481.260009765625 477.384765625 470.131103515625 463.948974609375 463.182525634765625 458.07489013671875 456.84796142578125 455.371368408203125 453.5858154296875 447.19415283203125 440.910858154296875 435.51544189453125 434.556732177734375 427.963897705078125 424.642913818359375 424.811553955078125 424.708831787109375 424.130462646484375 419.82781982421875
785.422119140625 782.3707275390625 779.41583251953125 775.47381591796875 768.44085693359375 762.500244140625 758.62738037109375 756.642333984375 755.630615234375 754.1077880859375 753.2271728515625 751.654541015625 750.96826171875 750.064208984375 748.195068359375 745.64288330078125 741.826904296875 740.31866455078125 737.937255859375 737.44921875 736.91680908203125 737.01153564453125 736.2899169921875 733.6685791015625 730.065673828125 726.22760009765625 721.49102783203125 717.55242919921875 713.437744140625 709.41107177734375 705.32623291015625 702.27154541015625 698.7635498046875 695.7337646484375 691.59814453125 687.9727783203125 683.2874755859375 679.06414794921875 673.76715087890625 668.2353515625 663.35595703125 658.06646728515625 651.21209716796875 646.58367919921875 641.8226318359375 635.9063720703125 631.03033447265625 625.0255126953125 616.74737548828125 609.00860595703125 603.524658203125 597.97198486328125 591.4769287109375 585.16162109375 579.466552734375 573.27947998046875 566.93536376953125 559.144287109375 553.25244140625 547.9686279296875 540.60931396484375 531.9912109375 526.27886962890625 519.574951171875 515.3067626953125 511.764495849609375 509.057861328125 502.738677978515625 496.580718994140625 490.11199951171875 484.067474365234375 479.7593994140625 475.15673828125 473.617523193359375 472.1630859375 468.205078125 462.322296142578125 458.886474609375 454.06378173828125 447.385345458984375 448.33624267578125 445.83306884765625 439.83758544921875 435.264129638671875 432.74676513671875 426.013275146484375 424.24102783203125 424.12841796875 423.8406982421875 423.711883544921875 419.824951171875
785.1683349609375 781.8299560546875 777.8944091796875 774.408203125 764.97998046875 760.4442138671875 758.2796630859375 756.25115966796875 755.136962890625 752.8616943359375 752.03729248046875 750.69537353515625 749.876953125 748.75189208984375 747.33441162109375 744.58056640625 741.93035888671875 739.5107421875 737.60784912109375 735.632080078125 733.905517578125 733.8919677734375 734.07171630859375 732.1217041015625 728.93621826171875 724.23223876953125 719.84423828125 715.48382568359375 711.59625244140625 707.4927978515625 702.9556884765625 699.3408203125 696.5389404296875 693.56195068359375 689.80078125 685.0926513671875 679.50982666015625 675.57244873046875 671.03997802734375 665.79437255859375 660.8021240234375 655.30450439453125 649.103515625 643.87225341796875 638.8267822265625 633.7850341796875 627.3902587890625 619.489501953125 611.6575927734375 605.6722412109375 600.55780029296875 595.5390625 589.6337890625 583.13507080078125 577.2952880859375 569.96435546875 564.18963623046875 557.1346435546875 550.51055908203125 543.59033203125 537.265625 529.27410888671875 523.92626953125 518.17742919921875 512.9051513671875 507.544036865234375 503.397796630859375 503.28515625 498.62652587890625 492.24822998046875 485.399444580078125 480.62261962890625 475.22027587890625 471.38909912109375 465.708984375 464.614349365234375 461.236175537109375 459.663299560546875 457.181427001953125 450.62933349609375 441.712127685546875 442.460723876953125 438.03631591796875 434.7899169921875 432.139404296875 425.36138916015625 424.26092529296875 423.495758056640625 423.5157470703125 423.316131591796875 421.2913818359375
